-6.449          -6.990          -5.766          -6.605          -5.663          -5.962          -5.531          -5.153          -4.311          -4.230          -2.442           0.541           1.532           1.130           1.422           1.936           1.815           1.774           1.649           1.601           1.651           1.616           1.143           1.300           1.306           1.209           0.724           0.067          -0.338           0.763           1.286           1.306           1.341           1.404           1.474           1.597           1.922           2.199           2.399           2.351           2.433           2.033           1.834           1.797           1.710           1.629           1.558           1.509           1.459           1.402           1.354           1.309           1.256           1.209           1.165           1.077           1.007           0.985           0.972           0.961           0.958           0.959           0.972           0.977           0.980           0.990           0.990           0.999           1.000           1.000           0.997           0.994           0.999           1.000           1.000           1.005           0.956           0.502           0.140           0.110           0.167           0.185           0.159           0.090          -0.039          -0.148          -0.101          -0.292          -0.433          -1.047          -1.213          -1.572          -1.483          -1.341          -1.869          -3.895          -3.175          -3.602          -2.645          -1.246           0.592           3.709           4.715           6.454           7.339           7.977           8.414           8.759           8.962           9.139           9.501           9.582           9.796           9.822           9.758           9.827           9.963          10.242          10.477          10.544          10.667          10.811          11.014          11.250          11.432          11.431          12.133          12.438          13.015          13.409          13.159          12.382          12.652          13.031          13.219          12.263          12.454          13.887          13.800          12.943          13.518          14.052          14.765          14.108          14.954          14.489          14.318          15.245          15.319          16.374          15.201          15.958          17.364          18.005          18.469          19.654          17.977          17.940          18.581          18.839          19.501          20.075
-6.527          -7.279          -5.094          -5.838          -5.256          -6.141          -4.865          -4.783          -4.122          -2.775          -2.872          -3.109           0.163           0.043           0.747           1.589           1.947           1.986           1.807           1.814           1.970           2.181           1.731           1.670           1.733           1.692           1.463           1.242           1.091           1.546           1.837           1.834           1.820           1.867           1.956           2.112           2.388           2.696           2.767           2.754           2.565           2.342           2.138           1.872           1.696           1.608           1.529           1.496           1.503           1.506           1.440           1.389           1.324           1.216           1.113           0.986           0.920           0.904           0.910           0.927           0.943           0.958           0.974           0.980           0.990           0.991           1.000           1.000           1.000           1.038           0.183           0.270           0.179           0.166           0.430           0.948           0.870           0.316           0.202           1.022           0.164           0.192           0.194           0.192           0.208           0.217           0.149           0.106           0.063          -0.687          -0.982          -1.534          -1.974          -1.869          -2.192          -2.799          -2.579          -3.642          -2.485          -0.297           1.129           3.894           6.408           7.410           7.661           7.863           8.095           8.261           8.293           8.422           8.701           8.829           8.989           9.201           9.415           9.636           9.885          10.149          10.385          10.497          10.490          10.744          10.971          11.148          11.429          11.691          11.928          12.190          12.881          13.804          13.950          13.322          12.192          12.465          13.025          12.990          12.364          13.227          14.344          13.769          13.050          13.830          14.250          14.721          14.078          15.537          14.434          15.694          15.416          15.169          16.696          16.272          17.002          17.511          17.856          19.160          19.127          18.821          18.752          18.843          19.164          19.389
-5.822          -6.295          -5.279          -4.882          -6.020          -6.458          -4.418          -4.800          -3.713          -3.584          -1.391          -1.551          -0.932          -0.350          -0.056           1.152           1.848           2.021           1.936           1.999           2.124           2.383           2.177           2.016           2.075           2.164           2.026           1.984           1.972           2.193           2.386           2.367           2.205           2.282           2.343           2.397           2.603           2.760           2.605           2.435           2.148           2.100           2.000           1.858           1.695           1.597           1.536           1.495           1.477           1.719           1.617           1.870           2.254           1.420           0.980           0.888           0.860           0.842           0.877           0.924           0.970           1.000           1.006           1.000           0.850           0.522           0.929           1.001           1.169           0.223           0.498           0.264           1.022           0.149           0.183           0.189           0.157           0.190           0.179           0.136           0.189           0.180           0.189           0.168           0.161           0.182           0.196           0.110           0.026          -0.579          -0.669          -0.614          -1.569          -1.815          -2.307          -3.356          -3.174          -4.121          -1.246           0.166           0.785           2.439           4.382           5.809           6.644           7.071           7.269           7.344           7.752           7.635           7.466           7.487           7.555           7.585           7.703           7.640           7.098           6.914           7.323           7.836           8.760          10.302          10.727          11.070          11.255          12.024          12.406          12.706          12.932          13.360          14.259          13.892          12.934          12.539          12.954          13.061          12.324          12.259          13.835          14.548          13.495          13.446          14.171          14.168          14.043          15.047          14.660          14.719          15.528          15.929          16.441          15.664          17.303          17.851          18.029          19.175          19.175          18.879          19.095          19.400          19.098          19.379
-3.689          -4.228          -5.339          -4.650          -6.634          -4.820          -5.172          -5.292          -3.016          -2.524          -2.742          -1.203          -0.270          -0.032           1.021           0.875           1.786           2.009           2.034           2.171           2.237           2.777           2.448           2.261           2.378           2.329           2.492           2.638           2.755           2.555           2.471           2.592           2.328           2.467           2.491           2.471           2.542           2.585           2.718           2.400           2.085           2.064           1.975           1.863           1.716           1.599           1.559           1.555           1.854           2.145           1.942           2.609           2.123           2.257           2.005           1.168           0.836           0.812           0.902           0.997           1.052           1.065           1.028           0.178           0.295           0.320           0.771           1.018           1.003           0.837           1.013           0.352           0.688           0.184          -0.118           0.159           0.152           0.166           0.132           0.044           0.094           0.112           0.182           0.199           0.197           0.189           0.186           0.139          -0.003          -0.501          -0.461          -0.534          -1.229          -1.430          -1.816          -3.272          -4.334          -1.494          -0.164           0.280           0.854           1.579           3.703           5.384           6.272           6.685           6.865           6.722           6.243           6.396           6.078           5.805           5.839           5.631           5.614           5.550           5.281           5.315           5.408           5.559           6.088           6.190           5.715           5.252           5.649          11.733          13.037          13.176          13.329          12.690          13.528          14.079          13.310          12.934          13.281          13.610          13.324          12.558          13.235          14.841          14.530          13.511          14.016          14.524          14.828          15.377          14.974          14.706          15.715          15.208          16.616          16.474          16.025          17.424          18.210          18.605          19.161          19.220          19.530          19.407          19.455          18.919
-0.229          -1.334          -3.909          -3.295          -5.836          -2.130          -5.950          -3.245          -2.293          -1.403          -1.252          -1.136          -0.182          -0.244          -0.049           1.059           1.788           2.020           2.042           1.879           1.996           2.097           2.076           2.088           2.258           2.381           2.482           2.595           2.517           2.460           2.429           2.473           2.416           2.337           2.490           2.440           2.525           2.483           2.574           2.460           2.259           2.126           2.002           1.911           1.833           1.798           1.783           1.796           1.885           2.037           2.254           2.533           3.040           4.556           3.908           1.405           0.584           0.738           1.021           1.214           1.258           1.195           1.042           0.744          -0.775          -0.298          -0.471          -0.298          -0.036          -0.167          -0.063          -0.017           0.118          -0.662          -0.502          -0.542          -0.622          -0.687          -0.513          -0.579          -0.387          -0.197           0.044           0.135           0.162           0.141          -0.042          -0.390          -0.359          -0.533          -0.380          -1.185          -1.492          -1.749          -1.958          -2.416          -2.416          -0.484           0.277           0.888           1.614           2.741           4.269           5.915           7.146           7.371           7.325           7.236           6.968           6.629           6.320           5.986           5.511           5.353           5.228           5.037           5.055           4.916           4.849           5.095           4.748           5.522           6.405           6.764           6.274          10.912          13.223          13.408          13.406          13.263          12.625          13.586          13.362          13.018          13.498          13.402          13.523          12.998          12.809          14.336          14.754          14.338          13.845          14.456          15.381          14.660          15.760          14.763          15.599          15.284          16.108          17.106          16.340          17.744          18.424          18.687          19.577          19.646          19.734          20.168          19.414          18.991
-2.245          -2.189          -0.364          -2.940         -19.363          -2.889          -2.302          -1.823          -1.739          -0.996          -0.940          -0.539           0.067           0.185           0.007           1.263           1.820           2.054           1.884           1.657           1.612           1.807           1.957           1.901           2.025           2.161           2.257           2.331           2.298           2.304           2.267           2.337           2.327           2.291           2.259           2.211           2.476           2.371           2.483           2.696           2.393           2.185           2.023           1.955           1.943           1.940           1.929           1.918           1.924           1.951           1.993           2.063           2.113           1.925           1.876           3.855           1.876           0.642           1.197           1.513           1.576           1.317           1.176           0.763           2.241           2.661           3.420           3.260           1.516           1.720           1.960           2.583           2.547           0.641          -0.217          -0.532          -0.650          -0.666          -0.627          -0.636          -0.663          -0.638          -0.812          -0.777           0.044           0.086           0.027          -0.209          -1.572          -2.719          -0.972          -1.523          -1.861          -2.126          -2.629          -4.347          -2.328          -0.725           0.162           0.419           1.943           3.116           4.549           6.210           7.386           7.720           7.514           6.877           6.189           5.440           5.118           4.750           4.765           5.003           5.343           5.634           5.942           6.099           6.074           6.015           5.880           5.136           7.756           7.860           7.090          11.263          13.472          13.824          13.562          13.427          13.178          13.125          13.323          12.592          12.796          13.783          13.349          13.539          12.768          13.775          14.720          14.280          13.986          15.405          15.071          14.896          15.554          14.927          15.266          14.997          16.228          16.239          16.399          17.567          18.340          18.461          19.052          19.642          19.322          20.220          19.276          19.059
-1.011          -1.522          -2.159           0.142          -0.749          -1.196          -1.645          -3.530          -1.226          -0.613          -0.314          -0.103           0.172          -0.110          -0.209           1.513           1.879           1.840           1.569           1.372           1.171           1.428           1.632           1.683           1.799           1.913           2.000           2.057           2.067           2.066           2.065           2.147           2.172           2.143           2.115           2.160           2.223           2.221           2.250           2.448           2.529           2.213           1.991           1.973           2.055           2.073           2.036           1.957           1.867           1.744           1.591           1.507           1.458           1.455           1.468           1.755           4.987           0.392           1.149           1.413           1.623           1.188           1.465           1.831           2.190           2.307           2.553           2.990           2.769           3.034           3.074           2.733           2.798           2.736           1.464          -0.634          -0.878          -0.872          -0.810          -0.811          -0.725          -0.601          -0.431          -0.391          -0.429          -0.648          -0.344          -0.921          -6.537          -7.037          -1.538          -1.560          -1.812          -2.046          -2.295          -2.580          -4.479          -2.170          -1.013           0.175           0.117           1.682           2.759           4.211           5.906           7.142           6.955           6.096           5.275           4.945           5.158           5.350           6.185           7.118           7.535           7.546           7.770           7.959           7.488           6.932           6.430           6.336           7.858           7.833           8.016          12.566          13.502          13.992          14.005          13.287          13.040          13.481          13.335          12.403          12.058          13.244          13.448          13.538          12.980          13.334          14.324          14.396          13.995          14.881          15.578          15.445          15.631          15.842          15.278          15.657          16.626          16.569          16.441          17.154          18.434          18.420          18.996          19.053          19.905          20.442          20.127          19.417
1.857           0.177           0.128          -2.125          -2.199          -0.806          -5.783          -1.437           0.415           0.179           0.820           1.114           1.210          -0.068           1.205           1.907           1.699           1.284           1.063           1.037          -0.165           0.048           1.294           1.467           1.583           1.673           1.755           1.803           1.833           1.852           1.868           1.943           1.992           1.997           2.015           2.098           2.361           2.327           2.405           2.241           2.455           2.198           1.835           1.966           2.219           2.275           2.188           2.047           1.886           1.682           1.364           1.012           0.648           1.177           1.626           1.500           2.081           3.429           0.789           1.570           1.700           1.455           1.314           1.433           5.600           3.835           3.652           3.218           3.266           3.353           3.707           3.663           5.643           4.692           8.620          10.191          11.244           7.355           2.710           1.657           2.119           2.582           2.516           0.882          -0.041           0.028          -0.240          -0.454          -0.687          -0.984          -1.217          -0.834          -0.808          -0.863          -1.091          -1.308          -1.393          -1.333          -1.155          -0.799          -0.195          -0.254          -0.288           0.452           6.899           8.613          10.305           5.906           7.996           7.576          10.912          10.016          10.919          11.005          10.143           9.775           9.310           9.158           8.232           7.650           7.464           8.187           8.370           7.842           9.619          12.664          13.523          13.969          14.171          13.518          12.928          13.335          13.279          12.745          12.030          12.693          14.060          13.409          13.170          13.372          14.429          14.742          14.526          15.156          16.123          15.586          16.002          16.551          15.415          16.542          16.718          16.760          16.478          16.807          18.336          18.400          18.856          18.919          19.472          18.883          20.464          19.317
0.829           3.430           3.063           0.148           1.625           1.496           1.710          -3.802           0.094          -3.271           1.186           1.556           1.929           1.769           1.383           1.218           1.120          -0.825          -1.872          -0.233          -0.162           0.106           1.042           1.264           1.373           1.442           1.515           1.561           1.597           1.627           1.671           1.749           1.808           1.846           1.886           1.984           2.167           2.377           2.464           2.484           2.269           2.114           1.857           1.972           2.597           2.750           2.541           2.344           2.237           2.170           1.960           1.677           1.212           0.865           1.552           1.958           2.619           3.456           4.592           3.621           2.547           2.171           3.499           5.597           6.902           6.177           6.504           6.243           4.920           5.250           4.882           5.903           4.370           5.579          10.007          11.521           8.225          11.211          13.588          18.754          17.914          17.585          18.225          18.029          16.888          15.379          15.237          16.552          18.305          19.146          19.970          17.375          15.619          11.711          10.559          13.787          16.128          12.710          13.689          17.551           7.117          13.880           9.617          10.404          17.266          11.924          15.794          17.277          13.314          11.428          14.796          13.332          10.674           9.724           9.572           8.809           8.682           8.362           7.864           8.069           8.026           9.140          11.215           8.700          10.546          12.639          13.480          13.978          14.193          13.900          12.794          13.203          13.202          12.828          11.863          11.928          13.795          13.741          13.404          13.697          14.507          14.930          15.040          15.180          16.032          15.955          15.756          16.211          15.328          16.830          15.934          16.908          16.766          16.662          18.007          18.385          18.561          19.293          19.587          19.555          20.774          19.356
-6.106          -4.754          -4.773          -4.499          -5.054          -5.177          -4.822          -2.104          -0.322           2.234           1.454           1.183          -3.822           1.076          -1.305          -2.460          -2.633          -2.181          -0.898          -0.296          -0.742          -2.419           0.014           1.127           1.180           1.221           1.299           1.341           1.369           1.389           1.461           1.551           1.625           1.672           1.727           1.820           1.972           2.122           2.224           2.277           2.268           1.917           2.022           1.806           3.579           3.738           2.910           2.590           2.713           3.429           4.156           4.248           3.689           2.275           1.899           2.214           2.787           4.753           6.173           7.568           7.533           8.333           6.869           6.782           6.356           6.424           6.924           8.942           7.453           6.951           5.893           4.609           3.851           4.311           6.856           5.671           6.515          10.452           9.219           7.074           5.950           6.336           6.780           7.050           6.860           6.329           6.306           6.892           7.076           7.100           6.700           5.540           5.670           6.340           5.342           6.008           8.937           7.540           9.121           7.478           3.924           7.267          15.478          13.709          10.270           8.734          12.514          15.324          11.631          13.232          12.251           9.352          10.319          10.449          10.008           9.500           8.633           8.566           8.324           8.687           7.559           6.782           7.463           7.229          12.225          12.874          13.412          13.987          14.288          14.332          13.040          12.933          12.848          12.785          12.229          11.838          13.216          14.004          13.524          13.613          14.581          14.837          15.125          15.196          15.886          15.988          15.336          15.627          15.793          16.896          16.213          17.087          17.020          16.769          17.645          18.036          18.358          18.988          19.242          19.861          20.698          19.385
-5.474          -5.770          -4.789          -5.683          -5.989          -3.477          -3.777          -3.541          -4.218          -4.043          -5.099          -3.304          -3.448          -3.122          -3.223          -2.491          -1.350          -2.049           1.283          -1.687          -3.824          -1.922           0.999           1.032           0.999           1.049           1.104           1.128           1.152           1.150           1.259           1.363           1.439           1.494           1.547           1.631           1.756           1.878           1.961           1.856           2.000           1.679           1.626           2.138           1.716           1.874           2.273           2.773           2.467           2.412           6.960           8.034           6.962           4.520           1.491           3.189           3.735           2.872           1.884           3.825           6.017           6.202           5.683           4.529           2.858           4.800           5.590           7.629           5.471           4.381           4.304           4.322           3.037           4.083           3.137          -0.939          -0.535           0.283           0.105           0.070          -0.291          -0.164          -0.762          -1.416          -1.751          -2.013          -2.116          -2.429          -3.015          -3.697          -3.068          -3.180          -1.710          -0.990           0.046          -0.220          -0.059           1.510           2.878           4.191           4.162           7.713           9.474           8.987           7.270           7.067           7.858           7.652           6.965           7.165           6.675           7.035           7.321           6.965           7.257           7.366           7.333           7.049           6.927           6.760           6.773           5.939           6.332           9.833          12.515          12.933          13.450          13.886          14.293          14.453          13.294          12.300          12.521          13.195          12.554          12.265          12.673          14.068          13.774          13.748          14.472          14.745          14.776          15.286          15.847          16.039          15.155          15.575          16.235          16.805          16.756          17.346          17.405          17.153          17.549          18.065          18.308          18.646          19.053          19.709          20.776          19.359
-5.561          -5.261          -5.406          -4.952          -3.869          -5.366          -4.793          -5.416          -5.056          -4.112          -2.977          -4.359          -3.303          -2.562          -1.704          -2.358          -5.097          -3.884          -1.899          -2.243          -0.764           0.067          -0.890           0.300           1.018           0.099          -0.285          -1.965          -2.996          -0.666           1.071           1.174           1.256           1.295           1.340           1.401           1.514           1.631           1.748           1.926           1.958           1.592           1.172           2.217           2.412           2.607           1.959           1.905           2.435           1.689           1.980           1.321           1.889           2.350           2.145           1.583           1.394          -0.491          -0.456          -1.019          -1.110          -1.517          -2.616          -0.009           2.623           3.348           3.877           4.892           3.893           2.402           2.515           2.882           1.821          -0.859          -1.039          -1.009          -0.994          -1.028          -1.015          -1.005          -0.869          -0.914          -0.928          -0.792          -0.997          -1.248          -1.396          -6.350         -10.415          -9.240          -4.808          -3.261          -2.066           0.056           0.279           1.157           1.452           2.172           3.189           4.196           5.252           5.921           6.320           6.584           7.121           7.811           7.765           7.634           7.259           6.944           6.446           6.505           5.986           5.885           6.124           6.029           6.023           5.923           6.365           6.901          10.179          10.058          10.879          11.814          12.377          12.827          13.361          13.799          14.139          14.283          13.735          12.643          12.752          13.443          13.065          12.422          13.038          14.155          13.959          13.486          14.260          14.163          15.019          15.110          15.851          16.441          15.682          15.992          16.365          16.352          17.609          17.373          18.076          17.639          17.620          17.601          18.453          18.684          18.846          19.102          21.088          19.487
-6.520          -5.782          -5.848          -5.696          -4.949          -6.308          -5.729          -4.990          -5.228          -4.930          -4.429          -4.647          -2.760          -3.300          -3.895          -5.418          -2.512          -1.753          -1.390          -3.488          -1.577           1.001          -1.138          -1.289          -0.674          -0.846           0.223          -1.101          -1.662          -3.517          -0.551           1.074           1.085           1.114           1.126           1.158           1.263           1.384           1.537           1.763           1.814           1.541           1.844           1.880           1.563           1.462           1.339           1.353           1.453           1.579           1.527           1.566           1.598           1.641           1.651           1.217           0.121          -0.391          -1.038          -0.429          -0.457          -0.115          -0.188          -0.317          -0.178           2.734          -0.713          -0.612          -0.578          -0.640          -2.496          -2.535          -1.599          -1.473          -1.425          -1.300          -1.260          -1.201          -1.070          -1.027          -0.859          -0.681          -0.592          -0.677          -1.018          -0.923          -2.115          -7.285          -7.738          -4.771          -2.019          -0.994           0.109           0.664           2.004           2.410           3.027           3.709           4.261           4.684           4.896           5.076           5.804           6.396           6.779           7.106           7.260           7.098           6.980           6.923           6.284           6.278           6.286           5.910           6.368           6.449           7.948           8.660          10.071          10.704          10.334          10.592          11.224          11.505          12.166          12.930          13.323          13.769          13.990          14.326          14.725          12.981          12.511          13.738          13.726          12.917          12.998          14.092          14.380          13.627          13.964          14.339          14.785          14.350          15.655          16.230          16.470          16.227          16.466          16.554          17.670          17.750          18.478          18.156          17.718          17.943          18.648          19.026          18.706          19.156          19.914          20.427
-6.808          -6.992          -6.279          -6.446          -6.191          -6.140          -6.163          -5.706          -5.937          -4.733          -4.699          -5.468          -4.984          -4.102          -3.383          -3.937          -4.531          -3.676          -3.266          -2.118           0.350          -1.581          -2.775          -2.961          -0.055          -1.099           0.176           0.158          -0.634          -2.880          -1.143          -0.138          -0.094          -0.352          -0.053          -1.530           0.835           1.111           1.276           1.397           1.354           1.287           1.274           2.928           1.432           1.355           1.226           1.196           1.193           1.232           1.248           1.223           1.172           1.183           0.163           0.135          -0.159           0.198          -0.232          -0.992          -0.226           0.340           0.796          -0.248          -0.804           0.370           1.808           1.553           1.136          -1.042          -0.701          -0.160           0.151           0.155           0.460           0.094           0.060           0.054           0.040           0.045           0.020           0.061          -0.225          -0.543          -0.685          -1.012          -1.722          -2.385          -3.416          -1.426          -0.610           0.143           1.137           2.425           3.238           3.768           4.153           4.412           4.742           5.619           5.923           6.161           6.565           7.055           7.539           7.634           7.771           8.006           8.212           8.177           8.336           8.667           9.014           9.065           9.578           9.746           9.852          10.454          10.745          10.804          10.899          11.066          11.190          11.417          11.916          12.520          12.936          13.503          13.993          14.165          14.064          13.640          13.305          13.560          14.393          13.389          13.313          13.814          14.862          13.653          13.486          14.461          15.001          14.531          15.343          16.811          16.886          16.199          16.804          16.846          17.563          18.161          18.724          18.785          17.909          18.209          18.394          18.845          18.736          19.031          18.977          20.688
-8.652          -7.135          -7.798          -7.335          -7.697          -7.034          -7.267          -5.802          -5.369          -4.874          -6.624          -5.973          -4.972          -6.461          -4.383          -7.282          -2.479          -2.353           0.415          -0.857          -0.452          -0.291          -3.874          -2.006          -1.441          -0.657           0.138           0.179           0.199          -0.694          -0.672          -0.505           0.476          -0.418          -1.119          -1.366          -1.769           0.194           1.098           1.119           0.707          -0.020          -0.670           0.434           2.055           1.627           0.366           0.063           0.113           1.050           1.078           1.067           1.046           0.372           0.265           0.146           0.146          -0.309          -0.388          -0.692           1.140           0.932           1.063          -0.237          -0.122           1.014           1.202           1.292           1.540          -1.345          -0.493           0.024           0.169           1.000           0.762           0.248           0.162           0.033           0.033          -0.005          -0.127          -0.185          -0.376          -0.413          -0.555          -0.512          -2.763          -2.950          -1.538          -0.456           0.463           1.422           2.315           3.344           4.167           4.595           4.955           5.319           5.728           6.132           6.494           6.781           7.010           7.171           7.284           7.509           7.834           8.128           8.415           8.656           8.841           9.015           9.152           9.123           9.568           9.809          10.169          10.475          10.826          11.278          11.324          11.490          11.681          11.740          12.063          12.239          12.483          13.240          13.058          13.083          13.698          13.510          12.656          12.997          14.020          13.441          13.623          14.200          14.051          14.036          13.400          14.519          14.761          14.803          14.938          16.725          17.284          17.008          17.008          17.126          17.843          18.317          18.715          19.139          18.676          18.509          18.581          18.529          19.068          19.481          20.102          20.679
-8.067          -8.441          -7.623          -7.218          -7.532          -6.915          -6.251          -5.563          -5.527          -4.911          -5.031          -3.956          -5.242          -4.917          -3.726          -2.030          -3.809          -1.170          -0.194          -2.139          -1.764          -1.526          -1.040          -1.903          -3.772          -2.615          -1.434          -0.311          -0.471          -0.059          -1.631           0.617           1.000          -0.169           0.188          -1.055          -0.827           0.163           1.036           1.020           0.992           1.128          -1.115           0.753           0.285           5.011           1.443           1.193           1.104           1.072           1.060           1.049           1.034           1.014           0.999           0.097          -0.371           0.481           1.002           1.000           0.995           1.039           0.959           0.668           0.779           1.066           0.058           1.100          -0.069          -1.118          -3.266           1.132           1.011           1.012           1.010           1.010           1.010           1.072           0.723          -0.709          -0.213          -0.743          -0.531          -0.325          -1.423          -2.095          -2.773          -1.717          -1.127          -0.168           0.315           1.678           2.724           3.506           4.301           4.937           5.484           6.037           6.510           6.813           7.006           7.168           7.326           7.536           7.689           7.709           7.847           8.065           8.276           8.425           8.628           8.800           8.812           9.119           9.315           9.794          10.283          10.496          10.686          11.146          11.427          11.796          11.906          12.205          12.333          12.455          12.697          12.556          13.258          13.427          13.423          13.876          13.409          12.853          13.076          13.416          13.053          13.021          13.235          13.574          13.473          14.472          14.308          14.703          14.433          16.287          17.120          17.506          17.801          17.558          18.038          18.407          18.691          19.294          19.238          18.890          18.721          19.548          19.890          20.285          20.489          20.458
-7.363          -8.572          -7.207          -7.898          -7.758          -7.412          -6.602          -5.559          -4.544          -4.577          -5.152          -5.323          -3.890          -3.640          -4.004          -3.036          -1.102          -1.766          -1.511          -3.333          -3.073          -2.631          -4.134          -3.445          -4.309          -2.749          -1.679          -1.285          -1.195          -0.309          -0.506           0.294           0.749           0.253           0.114           0.375           0.307           1.041           1.014           0.016           0.855          -2.141          -1.439          -0.791          -0.641           0.999           1.671           1.342           1.190           1.112           1.072           1.051           1.037           1.019           1.010           1.010           1.000           1.011           0.823           1.033           1.000           0.994           0.997           1.043           0.995           1.000           0.999           1.009           1.011           1.064           0.997           0.521           1.000           0.995           1.178           0.156           0.098          -0.118          -0.181          -0.131          -0.710          -0.823          -0.856          -1.464          -1.338          -2.415          -2.866          -1.403          -1.195           0.064           0.120           0.646           2.224           3.290           4.200           4.958           5.479           5.859           6.112           6.330           6.926           7.223           7.458           7.684           7.959           8.151           8.159           8.203           8.323           8.544           8.786           8.871           9.052           9.283           9.465           9.804          10.091          10.385          10.694          11.073          11.286          11.514          11.638          11.991          12.342          12.568          12.913          13.049          13.321          13.626          13.758          14.121          13.166          12.627          12.860          13.185          13.564          13.148          13.015          13.435          14.061          13.711          14.585          14.514          14.426          15.851          16.718          17.393          18.155          18.218          18.600          18.473          19.059          19.614          19.819          20.121          19.733          19.676          19.576          19.608          20.223          20.411
-7.837          -8.270          -7.782          -7.619          -7.793          -7.003          -6.285          -5.376          -4.708          -4.321          -5.379          -6.105          -5.649          -3.881          -6.385          -2.597          -2.833          -2.769          -2.385          -3.168          -5.052          -4.916          -4.623          -3.717          -3.425          -2.131          -1.502          -0.890          -0.532          -0.146          -0.271           0.285          -0.273           0.188          -0.148          -0.924           0.841          -0.491          -0.617          -2.037          -2.741          -5.958          -0.465          -0.517           0.189           1.432           0.042          -0.512           0.937           1.012           1.015           1.020           1.022           1.019           1.011           1.010           1.011           1.008           1.000           1.000           1.001           1.000           0.999           1.038           0.922           0.238           0.645           0.310           0.193           0.187           0.187           0.217           0.800           1.000           0.904          -0.290          -0.441          -0.514          -0.570          -0.358          -0.691          -0.936          -0.955          -1.115          -1.583          -2.921          -2.159          -1.409          -0.523           0.056           0.148           1.376           2.928           3.915           4.649           5.074           5.376           5.808           6.351           6.894           7.380           7.791           8.054           8.234           8.388           8.487           8.651           8.787           8.918           8.914           8.949           9.152           9.324           9.563           9.825          10.010          10.114          10.234          10.575          10.878          11.073          11.337          11.523          11.818          12.102          12.410          12.661          12.974          13.054          12.871          13.520          13.598          13.510          13.591          12.638          12.984          13.053          13.312          13.104          13.620          13.392          14.349          14.804          15.309          15.305          15.356          16.669          17.576          18.087          18.418          18.619          18.992          19.401          20.024          20.046          19.658          19.576          19.521          19.357          20.041          20.403          20.528
-8.014          -8.389         -10.083          -7.524          -7.367          -6.141          -6.087          -5.057          -4.185          -4.662          -5.413          -6.738          -7.045          -4.584          -6.096          -2.606          -2.802          -1.796          -2.893          -3.693          -4.974          -4.576          -4.453          -0.812          -2.303          -1.114          -1.989          -1.099          -0.718          -0.966          -0.244           0.046           0.073          -0.807           0.173          -1.019          -0.699          -0.485          -0.262          -0.370          -1.150          -0.688          -2.658           3.170           0.204          -0.422          -0.890          -0.232           0.446          -0.183           0.958           1.004           1.010           1.011           1.010           1.010           1.010           1.011           1.009           1.001           1.000           1.000           1.001           0.997           0.132           0.375           0.998           0.429           0.147           0.158           0.663           0.989           0.419          -0.040          -0.322          -0.432          -0.421          -0.510          -0.647          -0.777          -0.709          -0.777          -0.738          -1.427          -1.824          -3.216          -1.595          -1.220          -0.299           0.105           0.170           1.000           1.904           2.969           4.043           4.987           5.723           6.280           6.703           7.147           7.575           7.917           8.163           8.337           8.396           8.460           8.599           8.751           8.846           9.075           9.247           9.328           9.489           9.615           9.697           9.902          10.113          10.378          10.619          11.106          11.186          11.250          11.473          11.738          11.890          12.139          12.487          12.633          12.848          13.406          13.422          13.781          13.830          13.058          13.012          12.561          12.908          12.670          13.173          13.797          14.073          13.961          14.868          15.426          15.678          15.535          16.681          17.351          17.675          18.212          18.376          19.004          19.109          19.803          19.703          19.652          19.367          19.281          19.127          20.020          20.327          20.808
-8.221          -8.373          -9.936          -7.495          -7.054          -7.267          -6.317          -5.378          -4.470          -4.253          -5.519          -7.438          -5.374          -3.816          -2.865          -3.217          -4.714          -2.222          -3.135          -2.907          -3.573          -4.164          -4.589          -3.726          -1.324          -0.164          -1.319          -0.844          -0.088           0.190          -0.161          -0.222           0.615           0.216           0.228          -0.626          -0.711           0.002          -0.185           0.648          -0.171           1.036          -2.733           1.776           1.020           0.424          -0.015           0.260          -0.093           0.098           0.991           1.001           1.002           1.010           1.010           1.010           1.010           1.011           1.011           1.010           1.005           1.001           1.001           1.001           1.001           1.010           0.645           0.184           0.162           0.150           0.167           1.362           0.325           0.141          -0.052          -0.264          -0.313          -0.461          -0.515          -0.536          -1.088          -1.046          -1.575          -2.082          -2.251          -2.940          -1.516          -1.283          -0.053           0.078           0.115           1.521           2.692           3.892           4.760           5.417           5.998           6.549           7.037           7.456           7.762           7.961           8.116           8.287           8.366           8.347           8.402           8.816           9.064           9.196           9.340           9.353           9.420           9.541           9.663           9.903          10.133          10.268          10.560          10.629          10.807          11.086          11.370          11.472          11.767          12.150          12.074          12.494          12.499          13.321          13.812          13.759          13.610          13.129          13.248          13.133          13.779          13.919          12.824          13.379          14.536          13.923          15.108          15.325          15.883          16.407          17.103          17.473          17.736          18.076          18.603          19.198          19.626          19.751          19.614          19.381          19.184          19.141          19.216          20.051          20.484          21.360
-8.261          -8.522          -9.017          -7.671          -6.739          -6.272          -5.481          -4.851          -4.554          -4.048          -4.564          -5.909          -4.988          -4.525          -3.850          -2.344          -4.622          -2.373          -2.716          -3.427          -4.080          -4.653          -4.171          -0.048          -0.536           0.088          -1.296          -1.142           0.293          -0.090           0.320           0.316           0.674           1.009           0.805          -0.508          -0.838           0.272          -0.593           0.191           1.010           1.129           2.469           0.202          -1.519           0.622           1.032           1.024           1.018           1.014           1.011           1.010           1.019           1.021           1.019           1.020           1.022           1.020           1.011           1.010           1.010           1.011           1.000           1.000           1.001           0.999           1.001           1.000           1.002           1.000           1.065          -0.178          -0.515          -0.547          -0.409          -0.637          -0.496          -0.629          -0.364          -0.650          -0.942          -1.270          -1.510          -1.679          -3.020          -2.271          -1.177          -0.872           0.171           0.084           1.128           2.965           3.626           4.504           5.241           5.885           6.503           7.090           7.583           7.909           8.079           8.187           8.280           8.317           8.369           8.511           8.635           8.614           8.642           8.721           8.787           9.038           9.234           9.167           9.345           9.514           9.893          10.202          10.358          10.567          10.689          10.928          11.199          11.426          11.673          12.077          12.498          12.890          13.176          13.398          13.623          13.561          13.544          13.619          12.925          13.244          13.821          13.598          13.847          13.061          14.297          14.638          14.704          15.762          16.316          17.118          17.543          17.786          17.990          18.040          18.940          19.574          19.886          19.720          19.424          19.273          19.032          19.004          19.251          20.044          20.556          21.031
-8.824          -8.162          -8.591          -7.698          -6.824          -7.252          -6.011          -6.664          -4.520          -3.799          -4.196          -4.969          -5.573          -5.162          -4.981          -3.869          -3.977          -1.894          -2.621          -2.476          -4.979          -3.314          -2.393          -1.864          -0.491          -0.881          -0.540          -0.026          -0.183          -0.655          -1.779          -0.567          -0.179           0.167           1.007           0.204           1.004           0.980           0.203          -0.666          -0.037           0.192           1.212           3.256           1.462           1.198           1.167           1.130           1.105           1.098           1.084           1.074           1.064           1.054           1.049           1.040           1.030           1.027           1.020           1.010           1.011           1.009           0.999           1.001           0.998           0.146           0.204           1.001           1.001           0.266           0.670           0.995           0.538          -0.308           0.003          -0.630          -0.630          -0.762          -1.017          -0.995          -1.242          -1.890          -2.051          -1.735          -2.824          -2.371          -1.481          -0.323           0.160           0.142           1.654           3.049           3.884           4.799           5.658           6.194           6.607           6.897           7.217           7.541           7.766           7.843           7.924           8.057           8.206           8.270           8.339           8.482           8.632           8.715           8.798           8.896           9.046           9.181           9.129           9.254           9.360           9.426           9.517           9.644           9.921          10.169          10.194          10.216          10.842          11.216          11.602          11.981          12.462          12.845          12.591          12.952          13.293          13.716          13.379          13.272          13.032          13.907          13.661          14.014          14.014          14.596          15.310          16.155          16.817          17.474          17.486          18.076          18.349          18.666          19.367          19.720          19.628          19.502          19.032          18.984          18.675          18.840          19.068          19.736          20.771          21.096
-8.989          -9.028         -10.986          -7.706          -7.952          -6.312          -6.734          -5.034          -4.622          -4.071          -3.779          -7.068          -6.544          -5.971          -5.192          -4.597          -3.541          -2.351          -2.175          -1.303          -3.816          -3.271          -2.143          -1.012          -0.504           0.283           0.148           0.274           1.054           0.174           0.701           1.006           0.650           1.056           1.085           1.093           1.065           1.035           0.204           1.025           1.019           1.114          -2.175           1.141           1.570           1.498           1.365           1.298           1.246           1.207           1.184           1.153           1.128           1.101           1.076           1.060           1.043           1.029           1.020           1.020           1.010           1.010           1.000           0.998           0.199           0.468           0.188           1.099           0.262           1.006           0.946           0.459           0.169           0.167           0.078          -0.190          -0.367          -0.807          -0.886          -0.789          -0.882          -1.079          -0.960          -1.035          -1.238          -2.631          -2.914          -1.833          -1.259          -0.059           0.113           0.892           2.099           2.793           3.535           4.280           5.023           5.735           6.339           6.769           7.074           7.299           7.497           7.711           7.950           8.189           8.414           8.646           8.817           8.845           8.813           8.837           8.909           8.995           9.036           8.984           9.010           8.997           9.337           9.501           9.474           9.505           9.696           9.607          10.159          10.606          10.514           9.078          12.260          13.242          13.588          13.744          13.101          12.569          13.634          14.346          14.007          13.678          13.808          14.301          14.579          15.277          15.630          16.601          17.341          17.729          17.657          18.536          19.353          18.949          19.603          19.710          19.561          19.218          18.897          18.629          18.543          18.725          18.963          19.664          20.478          21.022
-8.837          -8.927         -11.187          -8.306          -7.385          -6.524          -6.916          -5.594          -4.193          -4.229          -2.158          -3.349          -4.229          -5.933          -4.278          -4.484          -3.459           0.996           0.753          -1.143          -2.894          -2.524          -2.047          -1.562          -0.250          -0.294           0.237           0.175           1.101           1.064           1.018           1.040           1.100           1.181           1.261           1.307           1.307           1.275           1.182           1.212           1.273           1.311           1.525           1.735           1.802           1.630           1.511           1.437           1.378           1.328           1.280           1.227           1.176           1.136           1.100           1.068           1.051           1.033           1.022           1.011           1.010           1.000           0.999           0.250           0.156           0.158           0.154           0.754           0.976           0.432           0.180           0.427           0.177           0.152           0.101           0.054          -0.467          -0.353          -0.616          -0.935          -2.231          -2.991          -1.959          -1.141          -0.561          -2.000          -3.437          -3.069          -2.105          -1.070          -0.134           0.170           0.518           2.004           2.791           3.751           4.512           5.335           6.045           6.536           7.031           7.496           7.948           8.235           8.325           8.409           8.487           8.509           8.426           8.636           8.722           8.899           9.012           9.127           9.216           9.217           9.264           9.362           9.420           9.554           9.649           9.646           9.642           9.447           9.095           9.650           9.232           9.023           9.137           9.411          11.672          13.490          13.423          13.260          11.268          11.677          15.203          14.627          14.887          15.180          15.457          15.602          16.454          17.048          17.685          17.993          18.339          19.300          20.025          19.983          19.816          19.632          19.384          19.013          18.625          18.491          18.343          18.543          18.887          19.544          20.767          21.225
-9.286          -9.655         -11.070          -9.366          -7.845          -6.876          -7.789          -5.408          -5.026          -3.938          -3.338          -3.512          -3.862          -5.223          -1.739          -2.323           1.069          -2.839          -2.387           0.010           0.965          -2.280          -2.032          -0.435          -1.004          -0.125           1.001           0.188           0.725           0.999           1.021           1.057           1.172           1.322           1.470           1.571           1.608           1.615           1.611           1.640           1.668           1.413           1.299           1.652           1.600           1.532           1.483           1.451           1.449           1.441           1.412           1.328           1.209           1.127           1.069           1.040           1.031           1.019           1.020           1.010           1.000           0.985           0.647           0.294           0.191           0.292           0.281           0.205           0.465           0.180           0.138           1.070           0.146           0.113           0.163           0.089           0.006          -0.196          -0.810          -0.870          -0.708          -1.470          -0.925          -0.950          -0.858          -0.912          -2.010          -4.065          -5.159          -2.474          -1.500          -0.991           0.115           0.089           1.557           2.791           3.177           4.314           5.306           6.026           6.565           7.047           7.534           8.013           8.425           8.761           8.989           9.202           9.403           9.549           9.685           9.901          10.179          10.201          10.247          10.357          10.407          10.413          10.410          10.399          10.379          10.368          10.416          10.424          10.165          10.620          11.040          10.858          10.404          10.077          10.574          10.197          10.238          11.937          13.323          12.924          13.848          16.036          16.055          15.809          15.839          16.386          17.170          17.504          17.917          18.414          19.260          19.530          19.869          19.769          19.582          19.405          19.106          18.623          18.313          18.051          18.142          18.336          18.526          19.351          20.236          21.085
-9.243          -9.158          -9.778          -8.417          -7.543          -7.654          -7.184          -6.399          -4.956          -3.879          -3.696          -3.991          -1.184          -5.905          -1.959          -0.387          -1.865          -4.671          -2.267          -1.059           0.685           0.476           0.964           0.043           0.186           0.172           0.996           1.010           1.000           1.017          -0.163           1.064           1.180           1.449           1.716           1.908           1.961           1.952           1.973           1.985           2.104           1.761           1.508           1.417           1.397           1.321           1.220           1.316           1.410           1.602           1.701           1.589           1.169           1.078           1.035           0.939           1.015           1.043           1.041           1.039           1.025           1.009           1.000           1.000           0.999           0.997           0.122           0.772           0.306           0.181           0.422           0.793           0.131           0.171           0.158           0.039          -0.079          -0.183          -0.367          -0.649          -0.680          -1.292          -1.401          -1.770          -1.375          -1.218          -1.818          -2.693          -4.461          -4.741          -2.765          -1.773          -1.383           0.056           0.158           1.955           3.091           3.965           4.923           5.925           6.662           6.969           7.281           7.810           8.286           8.515           8.689           8.835           8.955           9.063           9.158           9.316           9.498           9.699           9.915          10.063          10.130          10.234          10.335          10.515          10.661          10.699          10.848          10.871          10.760          10.741          10.872          10.832          10.585          10.021           9.861          10.939          12.587          13.955          13.668          14.568          14.651          14.380          16.365          16.538          16.747          17.027          17.110          17.980          18.537          19.448          19.317          19.702          19.582          19.656          19.693          19.026          18.697          18.211          17.817          17.795          18.004          18.197          18.407          18.938          19.968          21.063
-9.260          -8.889          -9.586         -12.303          -8.086          -6.294          -6.021          -6.515          -5.521          -3.846          -4.324          -3.040          -4.229          -4.031          -4.321          -4.694          -3.702          -4.771          -4.164          -2.351          -3.361          -2.808           0.128           0.155           1.001           1.000           1.001           0.178          -5.298          -3.206           0.126           1.047           1.226           1.528           1.917           2.459           2.220           2.150           2.137           2.140           2.132           1.991           1.797           1.683           1.609           1.564           1.535           1.542           1.560           1.594           1.592           1.549           1.480           1.392           1.320           1.265           1.222           1.188           1.156           1.125           1.082           1.036           0.174           0.144           0.174           0.179           0.125           0.136           0.223           0.169           0.473           0.091           0.186           0.147           0.101           0.041           0.028          -0.287          -0.547          -0.706          -0.927          -0.762          -1.128          -0.942          -0.815          -0.940          -0.647          -0.786          -1.786          -3.871          -2.456          -1.653          -0.965           0.032           0.090           1.342           2.757           3.811           4.816           5.582           6.143           6.600           6.995           7.333           7.599           7.807           7.945           8.049           8.159           8.308           8.509           8.669           8.910           8.990           9.205           9.378           9.419           9.708           9.880           9.750           9.879           9.973           9.949          10.093          10.118          10.352          10.563          10.919          11.091          11.309          11.688          11.045          11.093          13.148          12.733          13.819          14.825          15.243          15.878          17.100          18.067          17.491          17.792          18.266          18.729          19.268          19.368          19.623          19.493          19.467          19.315          19.105          18.248          17.717          17.382          17.585          17.936          18.161          18.571          18.992          19.723          20.968
-8.987          -8.607          -9.277          -8.204          -7.200          -7.618          -6.522          -6.153          -6.628          -4.927          -3.998          -4.578          -4.423          -6.918          -4.763          -4.531          -4.003          -6.417          -4.216          -3.397          -1.654          -0.186           0.421           0.177           1.005           0.434           0.239          -0.336          -4.976           0.058          -0.103           1.046           1.217           1.492           1.814           2.084           2.164           2.160           2.160           2.160           2.169           2.111           1.998           1.907           1.848           1.804           1.783           1.771           1.758           1.747           1.733           1.700           1.666           1.617           1.567           1.506           1.455           1.397           1.342           1.280           1.212           1.136           1.053           1.009           1.008           0.600           0.949           1.030           0.948           1.041           0.168           0.897           1.022           0.163           0.094           0.177           0.186           0.133          -0.054          -0.320          -0.462          -0.568          -0.685          -0.957          -1.391          -2.500          -2.299          -2.181          -2.101          -2.907          -4.117          -2.216          -1.440          -0.074           0.077           1.345           2.255           3.241           4.326           5.249           6.161           6.905           7.297           7.489           7.641           7.783           7.782           7.738           7.777           7.783           7.743           7.711           7.714           7.733           7.920           8.058           8.239           8.463           8.358           8.048           8.048           8.133           8.487           8.438           9.058           9.892          10.817          11.112          10.619          10.113           9.282          10.111          13.709          12.931          12.975          13.673          14.992          15.484          16.039          16.807          17.822          18.655          18.876          19.212          18.938          19.693          20.181          19.814          19.688          19.489          19.006          18.574          17.727          17.120          17.190          17.353          17.571          18.002          18.300          18.958          19.678          20.370
-8.568          -8.851          -8.461          -8.049          -8.612          -7.237          -7.171          -7.286          -5.620          -4.331          -4.282          -3.693          -5.983          -6.262          -4.130          -4.814          -5.092          -5.786          -3.346          -3.300          -1.979          -0.127           0.120           0.460           0.979           0.169           0.173          -0.028          -0.992           0.230           1.000           1.020           1.059           1.365           1.666           1.891           2.041           2.120           2.161           2.167           2.147           2.129           2.060           2.043           2.022           2.010           1.994           1.987           1.972           1.961           1.944           1.923           1.897           1.852           1.804           1.754           1.697           1.636           1.568           1.499           1.418           1.342           1.254           1.171           1.099           1.023           0.907           1.037           0.993           0.226           0.188           0.187           0.696           0.202           0.169           0.152           0.090          -0.115          -0.296          -0.374          -0.596          -0.634          -0.600          -0.712          -0.758          -0.592          -0.672          -0.725          -1.688          -2.157          -2.687          -1.655          -1.435          -1.090          -0.022           0.150           1.129           2.704           3.575           4.979           5.074           5.897           6.641           7.218           7.614           7.849           7.983           8.055           8.129           8.180           8.203           8.202           8.208           8.267           8.362           8.383           8.395           8.236           8.173           8.066           8.096           8.123           8.196           8.323           9.002           9.618          10.446          10.768          11.410          12.222          12.014          11.344          11.362          11.864          13.059          15.376          15.397          15.419          15.894          16.752          17.845          18.760          19.408          19.500          20.135          19.782          20.058          20.062          19.690          19.235          18.669          17.973          17.198          16.743          16.879          17.169          17.717          18.038          18.205          18.821          19.468          20.088
-9.914          -8.715          -7.024          -8.340          -8.062          -7.699          -7.537          -8.163          -3.668          -4.561          -4.497          -5.677          -6.003          -5.535          -4.996          -4.158          -2.768          -5.626          -2.857          -1.888          -0.804          -0.581           0.374           1.001           0.177           0.127           0.000           0.019          -2.445           0.063           0.189           0.976           0.480           1.298           1.570           1.800           1.991           2.124           2.196           2.234           2.234           2.225           2.191           2.191           2.194           2.188           2.190           2.191           2.194           2.197           2.191           2.182           2.157           2.121           2.063           2.005           1.950           1.897           1.850           1.781           1.691           1.599           1.495           1.395           1.295           1.196           1.110           1.049           1.005           0.652           0.787           0.191          -0.026           0.167           0.183           0.164           0.183           0.094          -0.227          -0.297          -0.479          -0.421          -0.346          -0.452          -0.561          -0.646          -0.707          -0.838          -1.252          -2.370          -3.129          -2.464          -1.986          -1.356          -0.700           0.120           0.412           2.370           3.219           3.853           4.470           5.149           5.754           6.282           6.757           7.184           7.484           7.704           7.912           8.085           8.211           8.306           8.331           8.329           8.253           8.112           8.025           8.032           8.171           8.421           8.801           9.000           9.166           9.203           8.803           9.366           9.256           9.452          10.398          12.492          13.369          12.686          13.164          12.905          13.424          14.287          15.351          15.751          16.050          16.624          17.738          18.520          19.285          19.602          20.131          20.091          20.005          19.699          19.514          18.915          18.114          17.091          16.091          16.158          16.550          17.236          17.490          18.086          18.143          18.773          19.278          19.921
-9.891         -10.445          -8.021          -7.005          -9.284          -8.094          -7.194          -7.215          -4.409          -3.965          -3.453          -4.354          -4.340          -4.525          -4.196          -0.548           1.250          -3.521          -1.012          -2.763           0.666           1.000           1.000           0.185           0.133          -0.525           0.165          -0.471          -2.597          -2.562          -0.123           1.047           1.136           1.316           1.530           1.761           2.006           2.193           2.310           2.378           2.380           2.395           2.406           2.399           2.322           2.333           2.321           2.339           2.429           2.430           2.431           2.430           2.431           2.430           2.328           2.238           2.114           2.124           2.190           2.175           2.045           1.920           1.771           1.617           1.463           1.332           1.215           1.109           1.024           0.256           0.156          -0.098           0.332           0.188           0.182           0.081           0.162           0.159          -0.005          -0.389          -0.405          -0.430          -0.481          -0.560          -0.560          -0.663          -0.768          -0.792          -0.822          -1.310          -2.875          -3.244          -2.433          -1.706          -0.741           0.127           0.157           0.510           2.635           3.585           4.740           5.603           6.100           6.536           6.889           7.118           7.304           7.664           7.927           8.010           8.191           8.649           9.164           9.331           9.485           9.404           9.327           9.019           8.589           8.236           7.971           7.761           7.731           7.794           8.390           9.837          11.562          11.957          11.855          11.502          10.829          11.555          13.476          14.659          14.461          13.617          14.614          15.566          15.363          16.215          17.301          18.433          19.104          19.504          20.127          19.994          19.862          19.615          19.083          18.319          17.250          16.029          15.227          15.476          16.408          17.144          17.655          18.006          18.361          18.699          19.177          19.837
-10.003          -9.506          -8.430          -6.666          -5.093          -6.897          -5.894          -6.329          -5.954          -3.171          -3.120          -3.334          -5.064          -4.608           0.991          -1.513          -1.867           1.002           1.000           1.000           1.001          -0.412          -1.410          -5.781          -0.805          -1.273          -0.543           0.188           0.185           0.256           1.027           1.145           1.254           1.340           1.455           1.648           2.027           2.401           2.428           2.493           2.445           2.384           2.268           2.346           2.358           2.360           2.370           2.369           2.382           2.389           2.390           2.388           2.373           2.353           2.314           2.272           2.241           2.210           2.187           2.163           2.105           2.021           1.885           1.631           1.441           1.411           1.339           1.272           1.206           1.153           1.111           1.072           1.041           0.808          -0.231          -0.229          -0.265          -0.227          -0.162          -0.425          -0.270          -0.292          -0.295          -0.443          -0.512          -0.541          -0.596          -0.757          -1.058          -1.330          -2.474          -3.455          -2.820          -1.593          -0.292           0.090           0.101           1.210           2.114           3.559           5.097           5.796           6.271           6.590           6.834           7.062           7.236           7.375           7.522           7.698           7.794           7.899           8.012           8.062           8.384           8.630           9.111           9.468          10.244          10.727          10.757          10.550          10.334           9.658           9.969           9.721           9.371           8.819           8.905          11.233          12.067          12.886          13.136          14.531          15.029          15.734          14.977          14.980          15.896          16.536          17.520          18.352          18.992          19.380          19.732          19.637          19.574          19.134          18.635          17.814          16.063          14.316          13.512          15.289          16.423          17.256          17.672          18.007          18.327          18.630          19.069          19.647
-9.572         -10.133          -7.982          -8.538          -8.050          -9.014          -5.672          -2.987          -4.775          -4.219          -3.517          -4.293          -0.572           1.118          -2.676          -3.665           0.628          -0.025          -2.101           0.906          -1.423          -0.860          -0.607          -3.848          -3.926          -0.686          -1.733          -2.068           0.171           0.173           1.091           1.285           1.409           1.381           1.221           1.452           1.825           2.145           2.284           2.352           2.380           2.397           2.394           2.366           2.350           2.341           2.341           2.340           2.351           2.350           2.350           2.351           2.341           2.321           2.300           2.279           2.250           2.221           2.186           2.136           2.070           1.990           1.884           1.775           1.673           1.572           1.484           1.410           1.337           1.275           1.209           1.148           1.082           1.063          -0.152          -0.285          -0.192          -0.218          -0.202          -0.422          -0.413          -0.281          -0.359          -0.398          -0.496          -0.525          -0.654          -0.692          -0.809          -1.352          -1.774          -2.580          -2.810          -1.490          -0.473           0.116           0.177           0.965           1.978           3.445           4.660           5.723           6.308           6.747           7.149           7.521           7.850           8.182           8.496           8.814           9.091           9.274           9.450           9.618           9.849          10.061           9.723           9.520           9.089           8.646           8.453           8.556           9.448           9.692          10.868          11.620          11.681          12.102          11.559          11.081          11.118          13.024          14.009          13.690          14.675          14.697          15.227          15.940          16.226          16.631          17.368          18.175          18.789          19.250          19.471          19.429          19.210          18.730          17.965          16.671          15.637          14.006          14.158          14.982          16.477          17.263          17.850          17.995          18.204          18.598          19.142          19.467
-10.707          -9.261          -8.160          -8.732         -10.344          -6.894          -6.808          -5.435          -4.049          -2.599          -0.591          -0.014          -2.105          -2.702          -4.122          -2.179           0.990          -2.366          -2.169          -2.647          -1.705          -2.242          -1.209          -2.663          -4.947          -4.413          -3.109          -2.760           0.255           0.127           1.165           1.459           1.723           1.631           1.115           1.126           1.660           1.962           2.166           2.272           2.334           2.366           2.403           2.416           2.356           2.312           2.279           2.297           2.309           2.320           2.330           2.330           2.329           2.321           2.297           2.276           2.270           2.261           2.256           2.218           2.166           2.102           2.024           1.930           1.834           1.736           1.640           1.549           1.453           1.375           1.295           1.223           1.157           1.089           0.889          -0.023           0.037           0.081           0.113          -0.201          -0.167          -0.244          -0.171          -0.246          -0.379          -0.442          -0.456          -0.583          -0.741          -2.254          -2.998          -3.091          -2.273          -1.607          -0.649           0.152           0.179           2.099           3.110           3.425           3.683           5.114           6.153           6.787           7.160           7.445           7.683           7.882           8.044           8.182           8.322           8.448           8.557           8.668           8.859           9.074           9.274           9.514          10.019          10.879          10.867          10.743          10.464          10.580          10.721          11.148          11.532          11.672          11.939          13.273          12.106          12.642          13.590          15.033          14.279          15.219          15.673          15.908          15.970          17.002          17.660          18.164          18.635          19.118          19.296          19.249          18.852          18.134          17.044          15.293          14.599          14.195          14.209          16.164          16.697          17.410          17.845          17.997          18.245          18.482          18.830          19.381
-10.027          -9.527          -9.514          -8.629          -7.904          -3.820          -7.060          -6.877          -4.439          -3.564          -0.474          -2.379          -3.607          -4.427          -2.150           1.002          -1.766          -3.289          -4.164          -2.529          -2.016          -4.295          -6.380          -4.268          -3.366          -1.429          -0.792           0.134           0.041           1.038           1.218           1.588           1.804           1.667           1.507           1.548           1.765           1.987           2.168           2.277           2.321           2.330           2.330           2.354           2.362           2.323           2.309           2.301           2.310           2.317           2.320           2.318           2.319           2.319           2.303           2.286           2.277           2.293           2.316           2.319           2.283           2.325           2.230           2.074           1.990           1.908           1.789           1.633           1.491           1.383           1.292           1.225           1.149           1.087           1.058          -0.126          -0.043          -0.125          -0.304          -0.441          -0.515          -0.325          -0.356          -0.478          -0.473          -0.555          -0.575          -0.744          -1.202          -3.602          -4.070          -3.759          -1.988          -1.204          -0.366           0.837           1.499           2.216           3.257           4.477           5.672           6.319           6.736           7.052           7.353           7.715           8.049           8.317           8.548           8.820           9.044           9.300           9.402           9.317           9.207           9.211           9.221           9.285           9.479           9.540           9.674           9.944          10.663          11.202          11.139          10.410           9.744           9.722          11.699          13.077          13.510          14.336          14.616          13.983          14.950          15.175          15.788          16.493          16.823          17.330          17.734          18.315          18.560          18.776          19.117          19.121          18.559          17.691          15.702          14.767          12.876          13.525          14.556          16.212          16.972          17.631          18.029          17.967          18.215          18.588          18.853          19.369
-9.705          -8.178          -7.176          -9.693          -4.897          -7.042          -5.826          -1.669          -1.246          -3.022          -3.446          -3.054          -6.442          -3.387           0.105          -2.949          -3.823          -4.549          -3.970          -2.782          -3.887          -6.709          -6.363          -1.962          -0.084          -0.314          -2.630          -1.638           0.193           1.023           1.089           1.172           1.245           1.472           1.612           1.747           1.916           2.133           2.298           2.297           2.292           2.304           2.320           2.340           2.418           2.289           2.291           2.300           2.310           2.320           2.319           2.319           2.327           2.322           2.319           2.320           2.310           2.300           2.290           2.259           2.217           2.164           2.087           2.005           1.919           1.823           1.547           1.035           1.118           1.135           1.146           1.124           1.078           1.037           0.643          -0.215          -0.125          -0.225          -0.170          -0.613          -0.489          -0.485          -0.450          -0.539          -0.554          -0.600          -0.666          -0.985          -1.534          -5.276          -4.590          -2.550          -1.470          -0.404           0.098           1.288           2.077           2.755           3.423           5.002           6.476           7.023           7.235           7.337           7.416           7.570           7.720           7.823           7.951           8.221           8.408           8.672           9.044           9.325           9.710          10.104          10.327          10.377          10.348          10.185           9.630           9.131           8.824           8.925           9.111          10.842          12.195          12.146          11.929          11.221          12.754          14.430          14.532          14.921          15.071          15.203          15.565          16.336          16.748          17.294          17.726          17.722          18.502          18.574          18.319          18.320          17.800          16.404          14.608          14.454          13.833          13.252          14.827          16.789          17.262          17.751          18.030          18.057          18.274          18.397          18.811          19.434
