-10.877         -10.664          -9.923          -9.555          -8.924          -7.881          -6.799          -6.737          -6.390          -4.652          -3.490          -3.664          -3.218          -3.259          -3.047          -3.596          -4.423          -3.526          -3.807          -3.497          -2.101          -2.502          -1.240          -0.886          -1.937          -1.337          -0.732           0.407          -1.930          -0.558          -0.376          -0.211          -0.571          -0.618          -0.087          -0.351          -0.233          -0.589          -0.815          -0.527          -0.567          -0.209          -0.073          -0.256          -0.797          -0.965          -1.300          -1.419          -1.390          -1.836          -2.257          -2.879          -2.989          -1.153          -1.168          -1.295          -1.253          -1.363          -1.221           0.703           0.152          -0.933          -0.272           0.134           0.005           0.041           0.241           0.311           0.371           0.349           0.550           0.394           0.352           0.422           0.384           0.715           0.442           1.057           1.113           1.168           1.203           1.207           1.208           1.190           1.168           1.149           1.132           1.124           1.120           1.119           1.109           1.076           1.046           1.037           1.121           1.261           1.319           1.300           1.274           1.262           1.237           1.194           1.118           1.193           1.131           1.150           1.116           1.119           1.150           1.070           0.982           0.858           0.873           0.918           1.001           1.022           1.028           1.022           1.024           0.804           0.026          -0.156          -0.281          -0.449          -0.599          -0.724          -0.870          -1.716          -2.811           0.107           2.011           2.877           3.892           5.902           7.614           8.687           9.297           9.502           9.758           9.989          10.234          10.754          11.210          11.544          11.761          11.987          12.225          12.463          12.498          12.541          12.562          12.406          12.296          12.434          12.697          12.487          12.721          12.440          13.415          13.255          12.391          12.464          12.832          13.876          14.065          13.259          13.048          10.826           8.638          10.569          16.989          14.302          12.522          12.558          15.813          17.838          20.076          20.913          17.973          17.509          17.308          16.305          14.148          12.407          11.873          11.011
-9.889         -10.561         -11.352          -9.092          -7.980          -7.543          -6.773          -6.209          -4.866          -4.276          -4.134          -3.788          -3.672          -4.060          -3.369          -3.181          -1.645          -3.375          -2.626          -2.538          -2.235          -2.914          -2.701          -2.025          -2.261          -1.649          -0.995          -1.111          -1.735          -1.113          -1.649          -0.897          -1.276          -1.073          -1.179          -2.126          -1.779          -1.135          -1.464          -1.546          -1.374          -1.029          -0.709          -0.536          -0.536          -0.807          -0.431          -0.547          -1.146          -0.859          -0.009          -0.902          -0.797          -1.120          -0.670          -0.363          -0.106           0.128           0.355           0.319           0.323           0.327           0.430           0.450           0.340           0.127           0.039           0.592           0.822           1.016           1.153           1.469           1.688           1.702           1.680           1.671           1.673           1.683           1.683           1.685           1.685           1.679           1.680           1.688           1.704           1.735           1.758           1.769           1.763           1.723           1.658           1.597           1.690           1.861           1.919           1.885           1.859           1.846           1.823           1.793           1.768           1.761           1.761           1.768           1.796           1.833           1.861           1.838           1.754           1.652           1.547           1.446           1.341           1.239           1.145           1.078           1.039           1.061           0.377           0.157           0.036          -0.156          -0.091          -0.045          -0.469          -0.584          -1.523          -3.813          -1.080           1.479           2.801           4.235           6.027           7.019           7.809           8.511           9.130           9.720          10.162          10.527          10.834          11.290          11.650          11.828          12.031          12.173          12.204          12.332          12.462          11.988          12.188          12.001          12.076          12.309          13.107          13.425          12.587          12.561          12.635          13.302          12.937          13.162          12.931          12.916          13.133          14.195          15.283          15.740          12.933          10.090          10.384          15.818          16.422          15.991          15.329          14.810          18.983          20.810          19.411          17.426          17.615          16.719          15.065          13.723          13.180          13.212
-9.803         -10.069          -8.697          -7.722          -7.183          -5.815          -6.877          -3.310          -4.854          -5.241          -4.829          -3.884          -3.996          -4.263          -2.912          -2.335          -2.999          -2.385          -1.405          -1.344          -2.197          -1.406           0.996           1.091           1.049           1.131          -0.998           0.017          -0.545           0.174           0.240           1.028          -0.521          -0.566          -0.458           0.177          -0.120           0.007           0.205           0.656           0.448           0.314           0.379           0.453           0.299           0.432           0.207           0.237           0.157           0.088           0.799           1.121           1.220           1.281           1.287           1.244           1.239           1.265           1.330           1.219           1.184           1.212           1.222           1.254           1.342           1.384           1.424           1.439           1.430           1.408           1.381           1.359           1.330           1.306           1.286           1.275           1.179           1.123           1.005           0.307           0.323           0.202           0.255           0.009           0.235           0.300           0.782           1.165           1.265           1.370           1.478           1.580           1.653           1.695           1.701           1.639           1.534           1.421           1.366           1.350           1.358           1.345           1.307           1.275           1.243           1.214           1.181           1.145           1.104           1.082           1.073           1.057           0.915           0.450           0.401           1.175           0.617           0.638           1.281           0.858           0.792          -0.162          -0.329          -0.780          -1.894          -1.299          -2.144          -0.277           1.886           2.936           4.046           5.018           6.227           7.345           8.157           8.809           9.440           9.956          10.423          10.913          11.241          11.509          11.705          11.949          11.662          11.613          12.230          12.625          12.650          12.934          12.940          12.834          12.783          12.737          12.806          12.901          12.945          13.195          13.777          13.197          12.660          11.380          12.027          13.559          12.816          13.145          14.868          15.095          16.108          13.582          11.266          12.180          13.780          16.629          15.901          13.838          17.207          19.233          20.473          18.874          17.495          17.235          16.163          15.431          14.918          14.651
-10.093          -9.879         -10.541          -9.855          -9.065          -7.244          -6.792          -6.313          -7.132          -6.412          -3.518          -3.779          -3.451          -4.181          -4.163          -3.287          -3.197          -2.894          -3.937          -2.804          -2.847          -2.916          -2.679          -2.946          -2.675          -1.968          -2.667          -1.670          -1.322          -0.683           0.213           0.302          -0.225          -0.135           0.003          -0.587          -0.515          -0.631          -0.439          -0.401          -0.171           0.066           0.169           0.224           0.085           0.206          -0.081          -0.118          -0.051           0.064           0.262           0.217           0.134           0.033          -0.498           0.211           0.236           0.321           0.318           0.135          -0.131           0.075           0.336           0.759           0.886           0.304          -0.021          -0.078          -0.435           0.214           0.209          -0.329          -0.126          -0.430          -0.735          -0.071          -0.187           0.250           0.168          -0.218          -0.264          -0.507          -0.104           0.105          -0.032           0.552          -0.285           0.178           0.299           0.206           1.065           1.072           1.063           1.082           1.041           1.025           1.034           1.043           1.053           1.059           1.063           1.075           1.080           1.094           1.101           1.098           1.082           1.127           1.171           1.147           1.096           1.069           0.577           0.418           0.183           0.229           0.252           0.194          -0.054          -0.675          -0.693          -1.361          -0.968          -1.741          -1.817          -3.247          -1.113           1.164           2.928           4.586           5.712           6.961           7.446           7.763           8.709           9.190           9.514          10.251          10.536          10.796          11.281          11.504          11.512          11.800          12.086          12.302          12.526          12.668          12.398          12.139          12.517          12.728          12.474          12.528          12.349          12.873          13.035          13.083          13.306          13.645          13.769          12.476          11.398          10.667          10.076          11.417          13.849          15.915          16.115          15.581          14.148          13.476          13.884          14.425          13.952          16.138          15.853          15.782          18.184          18.796          17.918          17.745          17.895          17.219          16.831          16.271
-9.591          -9.544          -9.517         -10.044         -10.013          -9.761          -9.595          -8.502          -8.222          -6.356          -6.507          -5.944          -6.072          -5.281          -5.449          -3.988          -3.987          -3.768          -4.034          -4.415          -3.227          -3.347          -4.078          -2.935          -2.259          -2.171          -1.794          -1.130          -1.289          -0.159          -0.609          -1.307          -0.519          -0.995          -1.081          -0.713          -0.791          -1.220          -1.603          -1.831          -1.592          -1.689          -2.036          -0.504          -0.079          -0.134          -0.916          -1.423          -0.682          -1.171          -0.696          -0.855          -0.777          -0.293          -0.552          -0.041           0.044           0.292           0.150           0.220           0.144          -0.034           0.372           0.194           0.412           0.489           0.258           0.189           0.395           0.787           0.439           0.213           0.285           0.322           0.120           0.170           0.283           0.165           0.021          -0.027           0.219           0.427           0.596           1.032           0.519           0.524           0.409           0.278           0.484           0.516           0.167          -0.218           0.277           1.067           0.999           1.000           1.000           1.001           1.001           1.001           0.995           0.990           0.982           0.975           1.005           1.089           1.117           1.104           1.133           1.122           1.106           1.077           1.050           1.053           0.505          -0.128          -0.086          -0.620          -0.652          -1.136          -0.878          -1.146          -1.865          -1.330          -2.356          -0.033           1.684           2.607           3.908           5.495           6.771           7.788           8.527           8.594           8.307           8.077           7.826           7.941           8.176           8.238           8.777           9.512          10.249          10.663          10.993          11.245          11.492          11.908          12.588          12.820          12.913          12.560          12.520          11.885          11.555          11.092          11.250          11.967          13.256          14.078          14.489          14.950          14.540          13.196          12.547          12.045          11.331          12.510          15.166          15.851          15.592          13.913          14.866          15.546          16.375          15.686          14.307          15.180          16.709          17.159          16.933          17.570          18.695          19.053          18.531          18.867
-9.619          -9.337          -9.655          -9.748          -9.522          -9.784          -9.369          -7.976          -7.258          -5.937          -5.690          -5.735          -6.065          -5.468          -5.242          -4.877          -5.694          -5.518          -5.352          -3.834          -3.924          -3.854          -3.777          -3.251          -3.016          -2.611          -3.166          -3.113          -2.365          -1.847          -1.762          -1.307          -1.040          -1.095          -1.548          -1.295          -1.453          -1.252          -3.060          -3.034          -0.888          -0.555          -1.311          -1.330          -1.078          -1.018          -1.647          -1.753          -2.115          -0.267           0.987           1.000           0.995           0.362           0.401           0.428           0.260           0.280           0.380           0.346           0.479           0.903           0.999           1.000           1.002           0.988           0.975           0.977           0.990           1.014           1.022           0.504           0.371           1.003           1.020           1.015           1.025           1.006           0.999           1.020           1.169           1.106           0.121           0.230           0.387           0.290           0.890           1.036           0.454           0.208           0.287           0.451           0.625           0.891           1.029           1.034           1.046           1.064           1.141           1.253           1.295           1.260           1.214           1.163           1.125           1.098           1.073           1.055           1.040           1.027           1.015           1.016           0.914           0.272           0.494           0.321           0.147           0.162          -0.623          -0.616          -0.814          -2.499          -1.100          -3.446          -1.223           1.195           2.399           3.620           4.836           5.824           6.550           7.334           8.078           8.764           9.083           9.305           9.635          10.014          10.391          10.792          11.059          11.178          11.078          11.421          11.728          11.800          11.857          11.898          12.068          12.472          12.979          13.626          13.490          13.092          12.968          13.140          13.153          13.015          11.985          12.645          13.872          15.037          15.503          13.928          11.668          10.673          11.037          13.083          14.493          15.944          14.760          14.300          14.490          15.387          16.155          16.401          16.109          14.894          16.039          16.718          16.813          16.982          18.267          19.016          19.029          19.499
-9.379          -9.254          -9.053         -10.037          -9.068          -9.158          -8.180          -8.180          -6.661          -5.945          -4.566          -5.629          -5.586          -5.594          -6.344          -5.619          -5.149          -5.088          -4.548          -4.308          -4.791          -4.633          -4.213          -4.265          -3.106          -3.064          -2.706          -2.400          -2.356          -2.597          -2.302          -1.834          -1.673          -1.412          -1.448          -0.450           0.831           0.884           0.966           0.995           0.996           1.028           0.997           0.898           0.861           0.486           0.583           1.078           0.439          -0.101          -0.554          -0.963          -1.186          -1.065          -0.803          -1.262          -1.367          -1.678          -0.243          -0.047          -0.143          -0.624           0.141           0.457           0.517           0.574           0.680           0.427           0.420           0.447           0.662           0.696           0.607           0.505           1.021           1.008           1.007           1.005           1.072           0.633           0.946           0.277           1.023           0.857           0.156           0.681           0.785           0.298           0.759           0.675           0.527           0.725           1.074           1.092           1.095           1.124           0.773           0.773           0.659           0.444           0.727           0.611           0.364           0.703           0.850           1.008           1.018           0.998           1.018           1.101          -0.413          -0.354          -0.175          -0.100           0.089          -0.075          -0.081          -1.275          -0.870          -0.933          -0.818          -0.957          -2.881          -1.788           0.208           2.072           3.407           4.699           5.775           6.638           7.307           8.037           8.671           9.021           9.280           9.537           9.757           9.913          10.131          10.760          11.087          11.442          11.873          12.155          12.327          12.383          12.653          12.878          13.230          13.086          12.510          12.594          13.404          14.423          14.455          13.995          13.710          13.582          13.495          13.615          13.171          13.448          14.535          14.847          13.803          11.797          11.616          12.192          14.274          13.829          14.803          14.473          14.913          15.223          15.935          16.573          16.578          16.476          15.622          16.299          16.579          17.342          18.562          19.413          18.679          19.411
-9.676          -9.151          -9.521          -8.565          -9.015          -8.153          -7.664          -7.596          -6.525          -5.393          -5.806          -5.914          -5.571          -5.895          -5.737          -6.143          -5.702          -5.576          -5.609          -5.023          -5.832          -4.844          -4.126          -3.720          -3.451          -3.770          -2.777          -2.259          -2.368          -3.323          -2.002          -0.236           1.108           0.677          -0.961          -1.698          -0.929          -0.852          -1.211          -1.734          -1.817          -1.500          -1.818          -1.281          -1.743          -1.223          -1.657          -1.349          -1.320          -1.470          -1.183          -1.183          -1.393          -0.999          -0.916          -1.395          -0.847          -0.583          -0.829          -0.690          -0.606          -0.224           0.294           0.194           0.270           0.470           0.806           0.579           0.422           0.505           0.052           0.399           0.558           0.416           0.383           0.275           0.255           0.246           0.335           0.491           0.495           0.430           0.332           0.308           0.589           0.428           0.392           0.265           0.260           0.193           0.030           0.590           0.408           0.274          -0.026           1.014           0.325           0.160           0.182          -0.360          -0.417          -0.464          -0.127          -0.173          -0.061          -0.242           0.305          -0.323           0.453           0.696           0.407           0.360           0.460           0.330           0.175           0.063          -0.395          -0.359          -0.912          -0.898          -1.523          -2.020          -2.100          -1.900           1.222           2.607           3.871           4.898           5.850           6.785           7.517           8.057           8.534           9.176           9.829          10.269          10.533          10.716          10.820          10.419          10.435          10.912          10.727          10.951          11.239          11.573          11.890          12.081          12.456          13.147          13.532          13.370          13.663          13.775          13.878          14.073          13.945          14.620          15.477          14.653          12.892          12.744          13.733          14.725          14.481          13.037          11.243          12.985          13.628          14.185          14.404          13.866          14.790          15.538          15.390          16.298          16.153          16.316          16.810          16.304          16.524          17.297          18.494          19.765          19.147          19.329
-8.949          -8.692          -8.946          -8.659          -8.610          -7.746          -7.246          -6.962          -6.139          -6.309          -5.920          -5.999          -6.220          -6.093          -5.617          -5.721          -6.040          -6.317          -5.779          -6.068          -5.533          -2.982          -3.088          -4.567          -2.863          -3.005          -3.208          -1.779          -0.020          -0.597          -0.390          -2.238          -2.397          -2.404          -2.920          -2.884          -2.752          -2.578          -2.563          -2.750          -2.783          -2.717          -2.775          -2.657          -2.573          -2.570          -2.598          -2.662          -2.638          -2.587          -2.611          -2.618          -2.616          -2.481          -2.330          -2.181          -2.054          -1.960          -1.867          -1.748          -1.656          -1.484          -1.449          -1.345          -1.281          -1.181          -1.104          -1.071          -1.095          -1.176          -1.081          -0.974          -0.856          -0.862          -0.873          -0.947          -0.953          -0.971          -0.919          -0.884          -0.713          -0.670          -0.691          -0.828          -0.811          -0.920          -1.054          -1.315          -1.264          -1.111          -1.039           1.073           0.986           1.001           0.993           1.017           0.030          -0.055           0.119           0.441           0.856           1.048           1.042           0.999           1.043           0.591           0.728           0.159          -1.626          -0.524          -0.724          -0.458          -1.334          -1.381          -0.346          -0.505          -0.619          -0.909          -0.934          -1.381          -2.743          -3.413          -3.212          -1.697           0.551           2.060           3.955           5.518           6.602           7.333           7.929           8.618           9.221           9.455           9.831          10.243          10.585          10.873          11.131          11.299          11.401          11.446          11.423          11.304          11.475          11.812          12.305          12.910          13.436          13.659          13.886          13.773          13.472          13.453          14.349          14.577          14.249          13.338          13.557          14.898          14.643          13.293          13.366          14.315          14.986          14.522          13.409          12.028          13.638          15.361          14.677          14.198          14.481          15.729          16.179          16.089          15.312          15.266          16.004          16.623          16.762          17.161          18.476          19.213          19.645          19.492
-9.138          -8.992          -8.812          -8.257          -7.586          -7.329          -6.498          -6.412          -7.123          -4.845          -6.060          -5.760          -5.268          -6.035          -5.972          -5.527          -5.601          -5.758          -5.217          -4.551          -4.870          -3.074          -2.521          -2.629          -2.204          -0.647          -0.346          -2.264          -2.505          -3.231          -3.343          -3.639          -3.648          -3.415          -4.050          -3.851          -3.956          -3.809          -3.579          -3.133          -2.906          -2.589          -2.559          -2.536          -2.587          -2.798          -3.110          -3.188          -3.142          -3.072          -2.991          -2.840          -2.755          -2.683          -2.606          -2.432          -2.356          -2.142          -2.014          -1.782          -1.684          -1.623          -1.547          -1.471          -1.370          -1.283          -1.208          -1.072          -1.067          -1.071          -1.071          -0.992          -0.961          -0.909          -0.922          -1.068          -1.070          -1.067          -0.941          -0.772          -0.664          -0.556          -0.434          -0.319          -0.178          -0.124          -0.079          -0.011           1.104           0.999           0.998           0.999           1.004           1.001           0.999           1.000           0.608          -0.120           0.024          -0.075          -0.017          -0.154          -0.227           0.964           0.896           0.022          -0.691          -0.382          -0.546          -0.272          -0.351          -0.378          -0.690          -0.378          -1.016          -0.332          -0.541          -0.808          -1.029          -1.934          -2.469          -3.260          -3.309          -1.538           0.684           2.110           3.839           5.176           6.198           6.961           7.517           8.031           8.513           9.000           9.492          10.177          10.570          10.852          11.380          11.611          11.816          12.014          11.590          11.613          11.807          11.929          12.576          12.794          13.009          13.324          14.020          14.218          14.038          13.957          14.218          14.688          14.390          13.548          13.476          14.607          14.295          14.408          13.815          14.286          15.212          14.809          13.546          12.335          13.171          14.549          14.998          14.511          14.993          15.860          16.403          16.511          15.905          14.954          16.046          16.736          17.098          17.467          18.343          19.481          19.882          19.806
-8.249          -8.221          -8.562          -7.846          -8.040          -6.725          -6.343          -5.863          -6.314          -5.763          -5.232          -5.199          -5.679          -5.445          -5.789          -5.659          -4.726          -4.938          -4.596          -3.632          -4.237          -2.932          -1.584          -2.061          -3.460          -3.754          -3.835          -3.587          -3.401          -3.513          -3.230          -3.751          -4.313          -4.391          -4.402          -4.086          -4.066          -3.984          -4.055          -3.730          -3.812          -3.683          -3.611          -3.389          -3.279          -3.479          -3.209          -2.870          -2.797          -2.524          -2.248          -2.138          -2.098          -1.769          -1.821          -1.583          -1.722          -1.793          -1.298          -1.549          -1.205          -1.164          -1.096          -1.529          -1.041          -0.738          -0.849          -1.246          -1.273          -1.116          -1.107          -1.194          -0.871          -1.102          -0.381          -0.485          -0.554          -0.194          -0.342          -0.139          -0.058          -0.002          -0.208           0.190           0.205           0.101           0.844           1.278           0.328           0.439           0.223          -0.179           0.474           0.054           0.028           0.146           0.107          -0.350          -0.413          -0.333           0.819          -0.745          -0.378           0.812          -0.459          -0.437          -0.541          -0.274          -0.332          -0.430          -0.461          -0.439          -0.524          -0.352          -0.417          -0.273          -0.397          -0.519          -0.766          -1.139          -1.966          -2.771          -2.852          -0.550           0.235           2.950           4.282           5.204           6.148           6.944           7.425           7.837           8.241           8.946           9.714          10.266          10.630          10.907          10.926          10.834          10.964          11.777          11.836          11.746          11.536          11.304          11.296          11.633          12.043          12.459          13.439          14.118          14.152          14.200          14.221          14.458          14.602          14.062          13.442          14.440          14.470          14.662          14.527          14.680          14.844          14.729          14.184          12.166          13.673          14.216          15.046          14.675          14.979          15.678          16.141          16.643          16.578          15.161          15.491          16.601          17.119          17.643          18.556          19.481          19.730          20.003
-7.423          -7.752          -7.179          -7.485          -6.066          -6.868          -6.343          -5.002          -5.199          -5.111          -5.236          -5.176          -5.554          -6.527          -5.862          -4.511          -4.165          -4.132          -3.703          -1.667          -2.844          -2.733          -3.473          -3.756          -3.886          -3.665          -3.603          -3.834          -3.420          -3.821          -3.959          -3.971          -4.577          -4.700          -4.845          -4.822          -4.725          -4.764          -4.147          -4.091          -3.544          -3.657          -3.797          -3.574          -3.524          -3.499          -3.270          -3.029          -2.911          -2.977          -2.912          -2.908          -2.676          -2.386          -1.973          -1.659          -1.338          -1.304          -1.318          -1.058          -1.146          -1.056          -1.368          -1.401          -1.315          -1.247          -0.770          -1.599          -1.511          -0.993          -0.917          -0.874          -1.003          -0.818          -0.851          -0.861          -0.678          -0.508          -0.141           0.043          -0.222          -0.231          -0.475          -0.254           0.171           0.430           0.962           0.714           0.529           0.399           0.091           0.198           0.161           0.121           0.154           0.181           0.170          -0.611          -0.923          -1.016           0.776          -0.621          -0.743          -0.456          -0.235           0.041           1.105           0.632          -0.094          -0.359          -0.425          -0.777          -0.658          -0.611          -0.579          -0.568          -0.413          -0.560          -1.051          -1.327          -2.089          -2.293          -4.092          -0.141           0.416           2.766           4.394           5.589           6.511           7.367           8.189           9.075           9.468           9.521           9.652           9.816          10.143          10.629          11.269          11.725          11.988          12.160          12.476          12.706          12.350          11.781          11.510          11.394          11.310          11.333          11.967          12.949          13.608          13.997          14.238          14.304          14.371          14.294          13.495          13.807          14.666          15.381          15.825          15.020          14.488          14.809          14.261          12.899          12.915          15.032          15.204          14.705          14.803          15.651          16.229          16.480          16.873          16.122          15.182          16.381          17.248          17.825          18.643          19.293          19.784          19.967
-7.964          -6.932          -6.370          -6.743          -6.157          -5.706          -5.074          -4.600          -4.899          -4.900          -5.445          -5.052          -5.632          -6.647          -5.500          -3.754          -4.014          -3.894          -3.974          -4.008          -3.516          -4.722          -3.879          -4.339          -4.742          -4.588          -4.001          -4.271          -3.971          -4.186          -4.201          -4.524          -4.900          -4.671          -4.705          -4.993          -4.956          -5.208          -4.943          -4.462          -4.195          -4.113          -3.641          -3.709          -3.800          -3.623          -3.509          -3.366          -3.169          -2.968          -2.960          -2.939          -2.771          -2.630          -2.431          -2.100          -1.554          -1.461          -1.314          -1.418          -1.310          -1.145          -1.261          -1.591          -1.275          -1.407          -1.204          -1.548          -1.178          -1.499          -1.161          -1.185          -0.674          -0.963          -0.952          -0.991          -0.264          -0.246          -0.433          -0.288          -0.382          -0.166          -0.117           0.050           0.348           0.275           0.101           0.273          -0.392          -0.402          -0.336          -0.457          -0.308          -0.539          -0.512          -0.472          -0.465          -0.619          -1.054          -1.145           0.723          -0.998          -1.030          -0.748          -0.676          -0.575          -0.920          -0.862          -1.033          -1.092          -1.074          -1.235          -1.265          -1.332          -1.683          -1.678          -1.284          -1.188          -1.248          -1.348          -1.976          -2.445          -2.905           0.147           2.116           3.538           5.095           6.392           7.342           8.035           8.617           9.142           9.611          10.007          10.261          10.347          10.403          10.551          10.772          11.331          11.688          11.967          12.244          12.444          12.769          13.038          13.472          13.348          13.092          12.324          12.260          12.330          12.988          13.439          13.953          14.330          14.533          14.553          14.526          13.310          13.966          14.777          16.254          16.114          14.872          14.882          14.491          13.383          13.096          14.948          15.346          14.859          14.806          15.476          16.613          16.687          16.744          16.623          16.055          16.069          17.153          17.569          18.505          19.423          19.941          19.922
-7.595          -6.875          -6.644          -6.517          -6.475          -5.683          -4.467          -4.814          -5.329          -4.824          -4.886          -5.942          -4.572          -4.796          -5.477          -4.279          -2.610          -5.079          -4.268          -3.252          -4.321          -4.575          -4.902          -5.055          -5.357          -5.064          -4.633          -4.669          -4.531          -5.023          -5.160          -5.417          -5.831          -4.842          -4.905          -5.446          -5.581          -5.103          -4.949          -4.814          -4.415          -4.274          -3.943          -3.791          -4.538          -3.539          -3.381          -3.540          -3.318          -3.173          -2.837          -2.719          -2.547          -4.283          -4.258          -2.906          -2.305          -2.104          -2.003          -1.822          -1.606          -1.808          -1.699          -1.597          -1.155          -1.622          -1.535          -1.307          -0.994          -1.157          -1.060          -1.396          -1.252          -1.187          -0.999          -0.648          -0.447          -0.329          -0.391          -0.201          -0.845          -0.135           0.257           0.220           0.429          -0.336          -0.105          -0.013           0.070           0.093          -0.259          -0.516          -0.384          -0.206          -0.462          -0.638          -0.685          -0.557          -0.414          -0.323          -0.300          -0.402          -0.671          -0.565          -0.686          -0.808          -0.860          -0.804          -0.712          -1.011          -1.283          -1.518          -1.625          -1.590          -1.520          -1.675          -2.134          -1.926          -1.433          -1.845          -2.184          -3.075          -2.985           0.016           1.977           3.661           5.278           6.571           7.602           8.296           8.700           8.902           9.333           9.935          10.398          10.770          10.983          11.108          11.117          11.189          11.325          11.529          11.821          12.145          12.565          12.945          13.052          13.324          13.431          13.843          13.793          13.674          13.541          13.763          14.050          14.318          14.651          14.298          13.769          13.352          11.178          13.584          16.072          16.583          15.302          14.994          14.715          14.028          12.702          14.230          15.282          15.278          14.855          15.095          16.257          16.586          16.592          16.239          16.526          15.636          16.901          17.391          17.977          19.175          20.058          19.968
-7.199          -6.953          -6.030          -6.585          -6.300          -5.723          -5.240          -5.398          -5.117          -5.313          -4.822          -4.576          -4.366          -4.996          -6.280          -4.830          -2.334          -1.422          -4.135          -2.251          -1.903          -3.896          -4.461          -4.776          -4.866          -5.172          -4.718          -5.219          -4.701          -5.090          -4.438          -4.993          -5.096          -4.856          -4.207          -4.424          -4.960          -4.841          -4.792          -4.704          -4.677          -4.431          -3.710          -3.588          -3.423          -3.508          -3.227          -3.538          -3.442          -2.793          -3.013          -2.669          -2.411          -2.961          -3.122          -2.968          -2.616          -2.316          -2.034          -1.743          -1.585          -1.915          -1.438          -1.707          -1.293          -0.124          -0.488          -0.940          -1.097          -0.790          -0.098          -0.196          -0.680          -0.218          -0.304          -0.128          -0.276          -0.333          -0.441          -0.076           0.085          -0.196           0.243          -0.391          -0.008          -0.169          -0.678          -0.088          -0.761          -0.637          -0.662          -0.633          -0.524          -1.006          -1.061          -1.137          -0.760          -1.166          -0.926          -0.935          -0.860          -0.982          -0.852          -0.781          -1.037          -0.922          -1.079          -1.022          -1.207          -1.351          -1.261          -1.485          -1.621          -1.959          -2.045          -2.325          -2.202          -1.929          -1.861          -1.997          -2.423          -3.336          -1.568           0.306           2.439           4.106           5.661           6.948           8.043           8.814           9.318           9.614           9.882          10.080          10.217          10.307          10.530          10.788          10.802          10.641          10.648          11.205          11.427          11.687          12.633          12.731          12.964          13.121          13.017          13.288          13.836          14.219          14.319          14.606          14.773          14.574          14.472          14.339          14.147          14.756          13.040          11.413          13.515          15.894          15.825          15.057          14.978          14.981          13.568          14.008          15.097          15.855          15.347          14.960          16.003          16.730          17.028          16.521          16.316          16.576          16.634          17.355          17.945          19.180          19.647          19.781
-7.138          -6.291          -6.215          -5.639          -5.945          -4.934          -5.316          -4.833          -4.980          -5.828          -5.369          -4.524          -4.211          -4.449          -5.739          -4.568          -4.681          -2.932          -3.852          -3.745          -3.483          -4.343          -4.432          -4.649          -4.522          -4.893          -5.280          -5.593          -3.360          -5.056          -3.646          -4.555          -5.245          -4.441          -4.551          -3.450          -4.496          -4.823          -4.185          -4.334          -4.680          -3.792          -3.370          -4.045          -3.678          -3.654          -3.372          -3.073          -2.897          -2.868          -2.672          -2.641          -2.866          -2.718          -2.774          -2.661          -2.598          -2.432          -2.586          -2.293          -2.316          -2.340          -1.568          -1.890          -1.390          -1.662          -1.523          -0.889          -0.631          -0.558          -0.770          -0.719          -0.646          -0.658          -0.695           0.112          -0.166          -0.811          -0.637          -1.004           0.767          -0.710          -0.980          -1.378          -0.616          -0.493          -0.607          -0.748          -0.911          -1.053          -1.140          -1.091           0.023          -0.078          -0.268          -0.935          -0.743          -0.606          -0.626          -0.913          -1.016          -0.959          -1.077          -1.103          -1.112          -1.127          -0.969          -0.977          -0.999          -1.170          -1.263          -2.736          -1.910          -1.689          -1.943          -1.330          -2.066          -2.093          -1.586          -1.785          -2.849          -1.865          -0.530           1.613           3.207           4.853           6.249           7.365           8.236           8.905           9.371           9.802          10.211          10.279          10.215          10.136          10.664          11.505          12.256          11.936          11.716          11.360          10.937          10.904          10.949          11.430          11.731          12.363          12.926          13.507          14.112          14.542          14.576          14.649          14.926          15.418          14.937          14.279          13.960          14.300          14.364          13.983          13.025          14.616          15.810          15.037          14.688          15.477          14.056          13.806          14.694          15.629          15.646          15.545          15.963          16.520          16.981          16.785          16.173          16.957          17.032          17.265          17.943          19.380          19.811          20.279
-6.960          -6.959          -6.319          -5.710          -5.819          -4.941          -4.914          -5.012          -5.523          -4.949          -4.983          -6.053          -4.357          -4.392          -4.652          -3.760          -4.037          -3.506          -3.114          -3.629          -3.733          -4.428          -4.323          -4.248          -4.481          -4.331          -4.572          -4.528          -5.299          -5.073          -5.181          -5.397          -4.314          -4.104          -4.457          -3.713          -3.020          -4.279          -4.474          -4.291          -4.191          -4.204          -4.054          -3.734          -3.651          -3.659          -3.281          -3.511          -3.484          -3.604          -3.540          -3.139          -3.078          -3.075          -2.795          -2.578          -2.124          -2.162          -2.547          -2.662          -1.855          -2.202          -1.953          -1.648          -2.379          -1.148          -1.206          -1.044          -0.937          -1.198          -1.139          -1.030          -1.262          -1.316          -1.118          -1.086          -0.279          -0.960           0.696          -1.261          -0.810          -0.790          -0.726          -1.107          -0.942          -1.616          -1.156          -1.100          -1.385          -1.410          -1.280          -0.777          -0.732          -0.964          -0.975          -1.312          -1.317          -1.237          -1.301          -1.059          -1.247          -0.367          -0.411          -1.392          -1.211          -1.294          -1.031          -1.287          -1.260          -1.152          -1.801          -1.819          -1.897          -1.783          -1.875          -1.589          -1.923          -1.518          -1.847          -1.995          -1.934          -2.526           0.167           1.994           3.991           5.601           6.713           7.609           8.381           8.942           9.364           9.755          10.000          10.159          10.426          10.627          10.742          10.915          11.156          11.518          11.634          11.886          12.155          12.121          11.986          11.878          11.608          11.988          12.777          13.517          14.251          14.575          14.577          14.615          14.880          15.153          15.199          14.754          14.043          14.250          13.688          13.594          13.712          14.617          14.788          14.743          14.176          15.023          15.026          13.910          14.764          15.497          15.793          15.892          15.489          16.346          16.783          17.122          16.242          16.517          17.030          16.959          17.678          18.722          19.709          19.840
-7.091          -6.634          -7.104          -5.692          -5.574          -5.183          -4.889          -5.125          -3.587          -4.566          -4.421          -4.480          -5.147          -5.390          -4.217          -3.472          -3.761          -3.451          -2.814          -3.534          -3.802          -3.837          -4.158          -3.598          -3.945          -4.434          -2.680          -4.240          -2.920          -4.731          -3.967          -4.705          -3.068          -3.394          -3.017          -4.677          -4.530          -3.955          -4.124          -4.200          -4.243          -4.128          -3.835          -3.950          -3.648          -3.621          -3.672          -3.799          -3.638          -3.605          -3.616          -3.348          -3.109          -3.302          -3.449          -3.158          -2.235          -2.009          -2.041          -2.448          -2.122          -1.583          -1.627          -1.525          -1.851          -1.659          -1.523          -1.656          -1.507          -1.533          -1.784          -1.725          -2.093          -1.297          -1.474          -1.190           0.378          -1.766          -1.262          -1.096          -1.566          -0.687          -0.881          -0.484          -0.377          -1.139          -1.296          -1.489          -1.252          -1.227          -0.485          -1.352          -1.495          -1.783          -1.677          -1.890          -2.002          -1.485          -1.723          -1.274          -1.255          -1.301          -1.127          -1.269          -1.300          -1.410          -1.066          -1.537          -1.763          -1.279          -1.821          -1.774          -1.867          -1.749          -1.984          -1.960          -1.810          -1.568          -1.757          -2.036          -3.129          -0.756           0.534           2.908           4.594           5.829           6.768           7.710           8.661           9.388           9.732          10.036          10.315          10.550          10.623          10.654          10.643          10.666          10.699          10.913          11.058          11.340          11.844          12.388          12.464          12.655          12.912          12.832          12.709          13.050          13.827          14.291          14.511          14.518          14.569          15.049          14.664          15.283          14.146          15.093          14.167          14.319          13.807          14.604          14.621          14.467          14.345          15.814          15.505          14.504          15.140          15.721          16.015          15.888          15.989          16.391          16.890          17.267          16.711          16.661          17.503          17.504          17.840          18.557          20.053          20.107
-7.239          -6.209          -6.266          -5.857          -5.343          -5.313          -5.167          -5.184          -5.013          -4.430          -4.562          -4.980          -4.691          -5.018          -6.783          -3.827          -3.356          -3.459          -3.486          -3.674          -4.050          -3.735          -4.461          -4.140          -4.300          -4.009          -2.845          -4.090          -4.288          -4.765          -4.074          -2.692          -4.022          -4.336          -4.129          -4.252          -4.090          -3.611          -3.312          -3.371          -3.582          -3.896          -3.975          -3.859          -3.862          -3.511          -3.540          -3.342          -3.305          -3.042          -2.855          -2.851          -2.992          -3.345          -2.783          -3.031          -2.594          -2.655          -2.405          -2.059          -2.815          -2.449          -1.755          -1.679          -1.517          -1.221          -1.241          -1.324          -1.265          -1.246          -1.522          -1.415          -1.313          -1.312           0.134          -2.413          -1.904          -0.422          -1.906          -1.763          -2.011          -1.621          -1.292          -1.590          -1.141          -1.419          -0.894          -1.038          -0.915          -0.231          -1.776          -1.669          -1.920          -2.095          -2.081          -2.273          -2.347          -2.481          -2.253          -2.045          -2.307          -2.403          -2.362          -1.818          -1.843          -1.636          -1.705          -1.902          -1.990          -1.729          -1.815          -2.026          -1.363          -1.499          -1.691          -1.633          -1.659          -1.380          -1.770          -2.580          -3.662          -0.131           2.067           3.759           5.305           6.357           7.165           7.929           8.742           9.344           9.666          10.138          10.454          10.598          10.785          10.965          11.167          11.383          11.313          11.296          11.322          11.378          11.764          12.022          12.441          12.820          13.138          13.255          13.024          13.000          13.452          14.008          14.705          14.788          14.581          14.340          14.447          15.082          14.775          15.615          14.899          13.786          14.046          14.889          14.947          14.308          13.636          13.918          15.445          15.451          15.464          15.571          15.994          16.112          16.332          16.419          16.914          17.166          16.661          16.946          17.339          17.563          18.251          18.722          19.549          20.340
-6.338          -6.066          -6.124          -5.434          -5.447          -5.494          -5.460          -4.780          -8.500          -4.426          -4.362          -4.812          -4.368          -4.015          -5.358          -4.344          -3.935          -4.044          -3.979          -3.692          -3.636          -3.664          -3.917          -3.945          -3.987          -4.285          -4.138          -4.824          -2.831          -4.725          -3.860          -3.945          -3.566          -3.772          -3.704          -3.536          -3.447          -3.459          -3.326          -3.165          -3.937          -4.045          -3.749          -3.592          -3.695          -3.267          -3.117          -2.992          -2.915          -3.026          -2.943          -3.253          -3.002          -3.004          -3.030          -2.808          -2.909          -2.420          -1.197          -0.811          -2.445          -1.908          -1.739          -1.534          -1.555          -1.815          -1.707          -1.499          -1.430          -1.356          -1.404          -1.595          -1.110          -1.557          -2.067          -2.026          -2.170          -1.896          -1.614          -1.514          -1.582          -1.833          -1.680          -1.723          -1.615          -1.983          -1.917          -1.654          -1.535          -1.619          -1.431          -1.762          -1.506          -2.175          -2.241          -2.204          -2.133          -2.380          -2.481          -2.163          -2.690          -2.721          -2.794          -2.602          -2.107          -2.036          -1.986          -1.844          -2.019          -1.912          -1.741          -1.604          -1.700          -1.705          -1.794          -1.674          -1.657          -1.475          -1.537          -1.573          -1.988          -0.201           1.832           3.417           5.129           6.581           7.778           8.829           9.117           9.230           9.624          10.099          10.595          10.888          11.030          11.103          11.268          11.426          11.479          11.435          11.288          11.136          11.134          11.418          11.797          12.163          12.500          12.838          13.202          13.298          13.064          12.723          13.160          14.516          14.491          14.204          14.263          14.679          15.245          14.979          14.855          14.375          14.369          15.227          14.822          13.859          14.079          14.212          14.343          14.744          15.466          15.661          15.496          16.015          16.128          15.968          16.741          16.976          17.128          17.361          17.715          17.580          18.298          19.087          19.974          20.142
-1.287          -6.186          -6.086          -5.278          -5.568          -5.725          -5.192          -5.402          -5.134          -4.175          -4.799          -4.545          -4.582          -4.568          -4.327          -3.980          -3.938          -5.079          -3.639          -3.691          -3.658          -3.560          -3.839          -4.077          -3.704          -3.758          -4.407          -5.262          -4.250          -4.807          -4.199          -3.250          -3.036          -2.750          -3.331          -2.816          -2.747          -2.755          -3.143          -3.218          -3.395          -3.376          -2.982          -3.393          -3.481          -3.129          -2.944          -3.232          -3.439          -3.428          -3.256          -2.493          -2.265          -3.013          -2.731          -2.597          -2.014          -1.698          -1.618          -2.028          -1.756          -1.697          -1.646          -1.716          -1.563          -1.666          -1.733          -1.656          -1.860          -1.583          -1.867          -2.281          -1.715          -1.722          -1.914          -1.885          -1.644          -1.729          -1.397          -1.473          -1.632          -1.376          -1.739          -1.724          -1.833          -1.572          -1.620          -1.505          -1.377          -1.188          -1.702          -1.802          -2.244          -2.171          -2.089          -2.056          -2.065          -2.080          -2.000          -2.308          -2.558          -2.791          -2.753          -2.322          -2.013          -1.951          -1.933          -1.746          -1.736          -1.533          -1.451          -1.532          -1.577          -1.563          -1.590          -1.515          -1.765          -1.564          -1.637          -1.738          -2.444          -0.661           0.922           2.808           5.049           6.989           8.119           8.736           9.219           9.506           9.859          10.201          10.505          10.689          10.901          11.070          11.229          11.388          11.578          11.676          11.451          11.171          10.956          11.023          11.279          11.589          11.886          12.265          12.669          12.952          13.142          13.550          13.907          14.396          14.789          14.738          13.900          13.123          11.311          13.218          13.254          13.996          13.873          15.244          15.682          14.098          13.786          15.244          14.997          14.639          15.142          15.263          15.496          15.725          16.326          16.232          16.606          16.682          16.998          17.015          17.585          17.546          17.915          19.033          19.441          19.791
-5.572          -5.532          -6.010          -5.344          -5.519          -5.177          -5.025          -4.968          -4.277          -4.805          -4.085          -4.768          -4.222          -4.015          -5.617          -4.600          -4.389          -4.240          -4.095          -3.621          -3.532          -3.922          -4.345          -4.875          -4.352          -3.882          -3.691          -3.876          -3.674          -3.908          -3.197          -4.344          -3.652          -2.481          -3.043          -2.436          -2.763          -2.679          -2.780          -2.956          -3.182          -3.033          -2.974          -2.981          -3.942          -3.674          -3.710          -3.546          -3.403          -3.202          -2.950          -3.171          -2.815          -2.929          -2.718          -2.321          -1.919          -2.293          -1.835          -1.455          -1.710          -1.888          -2.069          -2.036          -2.057          -2.012          -2.199          -1.839          -1.731          -0.835          -2.584          -1.607          -1.610          -1.577          -1.479          -1.356          -1.469          -1.456          -1.250          -1.209          -1.398          -1.554          -1.434          -1.383          -1.176          -1.234          -1.440          -1.321          -1.065          -1.043          -1.235          -1.055          -1.223          -1.400          -1.473          -1.749          -1.663          -1.713          -1.604          -1.651          -1.629          -1.759          -1.967          -2.127          -1.610          -1.505          -1.419          -1.360          -1.199          -0.976          -0.848          -0.970          -1.059          -1.074          -1.111          -1.623          -1.311          -1.413          -1.398          -1.439          -2.710          -0.862           1.210           2.887           4.741           6.168           7.288           8.142           8.758           9.287           9.733          10.068          10.317          10.496          10.690          10.949          11.167          11.347          11.542          11.693          11.691          11.518          11.192          10.842          10.600          10.602          10.595          10.597          11.237          11.943          12.525          13.161          13.720          14.274          14.835          15.065          14.771          14.021          12.942          12.210          11.747          12.162          13.260          15.097          15.926          14.690          13.989          14.469          15.737          15.095          15.109          15.540          15.454          15.425          16.680          16.300          16.590          16.717          17.081          17.070          17.521          17.633          17.867          18.868          19.655          20.020
-4.742          -4.800          -6.117          -5.469          -5.020          -4.861          -5.500          -4.745          -3.873          -4.656          -4.391          -4.551          -4.235          -3.990          -5.504          -5.412          -3.959          -3.952          -4.628          -3.715          -3.801          -3.626          -4.269          -4.267          -3.810          -4.224          -3.770          -3.604          -3.693          -3.491          -3.519          -3.188          -3.226          -3.453          -2.926          -2.742          -3.096          -2.776          -2.336          -2.535          -2.673          -2.739          -2.734          -2.641          -2.845          -3.603          -3.573          -3.709          -3.373          -3.076          -2.784          -2.808          -2.901          -2.845          -2.611          -2.392          -2.021          -2.254          -2.040          -0.322          -0.181          -0.298          -1.320          -1.589          -1.710          -1.842          -1.968          -1.777          -0.870          -2.060          -1.966          -2.019          -1.563          -1.514          -1.810          -1.593          -1.592          -1.660          -1.373          -1.052          -0.784          -0.861          -0.778          -0.940          -0.977          -1.024          -0.883          -0.974          -0.929          -0.910          -1.001          -1.111          -1.163          -1.269          -1.118          -1.048          -0.922          -1.431          -1.221          -0.962          -1.077          -1.023          -0.964          -1.212          -1.005          -1.182          -1.360          -1.338          -1.018          -1.144          -1.320          -1.237          -0.892          -0.800          -0.728          -1.083          -1.309          -1.280          -1.301          -1.656          -2.623          -1.449           1.424           3.127           4.710           6.086           7.257           8.128           8.786           9.344           9.774          10.041          10.250          10.404          10.554          10.821          11.070          11.249          11.404          11.547          11.669          11.752          11.655          11.274          10.858          10.690          10.736          10.890          11.066          11.034          11.927          12.718          13.531          14.032          14.655          14.849          14.763          14.786          14.395          13.665          12.618          11.695          12.046          14.502          15.779          15.116          13.631          12.839          14.550          15.076          15.315          15.243          15.566          15.613          17.051          16.505          17.068          16.818          17.390          17.325          17.651          17.610          17.889          18.917          19.786          20.491
-4.975          -4.375          -5.639          -5.481          -5.011          -4.989          -6.604          -6.222          -4.919          -4.270          -3.818          -4.548          -4.058          -3.854          -4.761          -4.378          -3.473          -3.474          -4.033          -4.290          -3.766          -3.234          -4.262          -4.288          -4.384          -4.171          -3.602          -3.312          -3.720          -3.496          -3.732          -3.599          -3.390          -3.322          -3.782          -3.043          -2.583          -2.724          -2.678          -2.453          -2.709          -2.441          -2.383          -2.649          -2.619          -2.786          -3.290          -3.589          -3.571          -3.335          -2.824          -2.801          -2.860          -3.107          -3.070          -2.347          -2.260          -2.119          -1.491          -0.323          -0.208          -1.824          -1.803          -1.090          -1.148          -1.479          -1.430          -0.050          -0.770          -1.564          -1.643          -1.492          -1.459          -1.243          -1.301          -1.312          -1.226          -0.928          -0.809          -0.834          -0.610          -1.052          -0.521          -0.814          -0.692          -0.792          -1.007          -1.003          -2.639          -1.149          -1.150          -0.762          -0.626          -0.796          -0.706          -0.650          -0.029          -0.103          -0.135          -0.020          -0.384          -0.458          -0.351          -0.280          -0.335          -0.324          -0.266          -0.323          -0.599          -0.791          -0.457          -0.475          -0.307          -0.082          -0.083          -0.332          -0.430          -0.599          -0.954          -1.249          -2.187          -1.167           1.106           2.880           4.611           6.099           7.346           8.231           8.823           9.258           9.592           9.850          10.097          10.305          10.454          10.633          10.825          11.040          11.219          11.385          11.573          11.746          11.834          11.750          11.584          11.491          11.520          11.627          11.696          11.893          12.537          12.682          12.742          13.318          14.165          14.630          14.669          14.623          14.902          14.239          13.219          11.453          11.230          13.193          16.042          15.079          14.162          13.018          13.678          14.930          15.308          14.869          15.444          15.184          16.391          16.558          16.656          16.579          17.221          17.503          17.707          17.423          17.417          18.337          19.600          20.094
-5.846          -5.009          -5.322          -5.373          -5.357          -5.289          -5.533          -4.930          -4.710          -4.058          -4.031          -4.424          -4.391          -4.336          -3.093          -4.397          -3.289          -3.459          -4.216          -4.088          -3.793          -3.326          -3.650          -3.675          -3.601          -3.860          -3.337          -2.961          -2.904          -3.087          -2.629          -2.819          -2.879          -3.289          -2.758          -2.601          -2.609          -2.736          -2.301          -2.522          -1.761          -1.792          -2.313          -2.329          -2.436          -2.234          -2.439          -3.741          -3.806          -3.267          -3.067          -2.673          -2.474          -1.939          -2.134          -1.735          -1.760          -2.023          -1.450          -1.633          -1.648          -1.556          -1.027          -0.647          -0.563           0.129          -0.567          -0.688          -0.566          -0.552          -0.648          -0.961          -1.001          -0.907          -1.002          -0.823          -0.668          -0.038          -0.725          -0.160          -0.271          -0.160          -0.308          -0.344          -0.326          -0.413          -0.421          -0.440          -0.491          -0.633          -0.340          -0.571          -0.585          -0.879          -0.726          -0.477           0.038           0.070           0.028           0.029           0.065          -0.254          -0.201          -0.040          -0.261          -0.328          -0.397          -0.328          -0.430           0.319           0.456          -0.161           0.046           0.031          -0.132          -0.303          -0.614          -1.077          -1.030          -1.824          -3.010          -0.402           1.128           2.871           4.728           6.110           7.177           8.082           8.658           8.979           9.247           9.523           9.858          10.154          10.325          10.539          10.759          10.969          11.166          11.415          11.660          11.845          11.966          11.976          11.849          11.676          11.554          11.542          11.573          11.969          12.465          12.918          13.342          13.588          13.833          13.891          14.336          14.291          13.970          13.837          12.314          10.387           8.735          10.932          15.118          15.979          14.398          13.326          13.620          14.877          15.529          14.661          15.271          15.437          15.975          16.616          16.776          16.593          17.323          17.745          17.606          17.326          17.429          17.871          18.974          20.012
-5.472          -5.283          -5.625          -5.676          -5.189          -5.457          -5.676          -5.230          -4.189          -3.254          -3.771          -4.284          -4.459          -3.899          -4.282          -3.649          -3.221          -3.877          -4.177          -5.129          -3.430          -3.321          -3.507          -3.175          -3.400          -3.195          -2.879          -2.572          -2.698          -2.749          -2.732          -3.586          -2.878          -3.094          -2.741          -2.430          -2.114          -2.041          -2.104          -1.967          -1.455          -1.023          -1.893          -2.167          -2.246          -2.426          -2.194          -2.889          -4.052          -3.759          -3.333          -2.964          -2.682          -2.639          -2.391          -2.748          -2.803          -2.340          -1.668          -1.126          -1.263          -0.792          -1.452          -2.621           0.013          -0.788          -0.525          -0.474          -0.124          -0.044          -0.210          -0.245          -0.384          -0.489          -0.143          -0.149           0.023           0.141           0.176          -0.059           0.104           0.112           0.046           0.089           0.158           0.205           0.118          -0.163          -0.440          -0.139          -0.214          -0.345           0.029          -0.317          -0.250           0.051          -0.051           0.160           0.160           0.027           0.063          -0.134          -0.693          -0.644          -0.656          -0.728          -0.846          -0.719          -0.748          -0.310          -0.277          -0.346          -0.187          -0.006          -0.479          -0.427          -0.672          -1.658          -1.619          -2.268          -2.589          -0.107           1.289           3.280           4.865           6.187           7.228           7.988           8.541           8.917           9.161           9.389           9.615           9.838          10.049          10.308          10.423          10.475          10.615          10.944          11.311          11.574          11.723          11.820          11.787          11.671          11.600          11.510          11.357          11.431          11.930          12.237          12.782          13.325          14.388          13.876          14.527          14.993          14.076          13.767          13.189          11.170           9.779           8.588          12.279          15.971          14.687          13.670          13.271          14.852          15.886          14.666          15.101          15.512          15.559          15.808          16.804          16.882          17.579          17.842          17.749          17.500          17.340          17.805          19.147          19.830
-5.763          -5.148          -5.293          -5.659          -4.639          -5.409          -5.131          -4.517          -4.042          -3.375          -4.325          -4.126          -4.802          -3.439          -4.069          -5.112          -3.372          -4.082          -4.947          -4.254          -2.927          -3.398          -2.878          -3.494          -3.065          -2.938          -2.737          -2.464          -2.465          -3.079          -1.690          -2.441          -2.621          -2.032          -1.735          -1.778          -1.724          -1.754          -0.997          -0.547          -0.707          -2.011          -1.800          -1.996          -1.982          -2.166          -2.178          -2.602          -3.582          -3.752          -3.671          -3.255          -3.383          -3.080          -2.344          -2.619          -2.279          -2.084          -1.495          -0.774          -0.976          -1.035          -1.076          -0.591          -0.978          -1.252          -0.940          -0.801           0.583           1.009           0.928          -0.610          -0.247          -0.345          -0.359          -0.212          -0.187           0.195           0.189           0.097           0.120           0.087           0.057          -0.260          -0.504          -0.629          -0.634          -0.710          -0.464          -0.219          -0.295          -0.153          -0.203          -0.175          -0.034           0.015           0.133          -0.269          -0.241          -0.348          -0.411          -0.460          -0.503          -0.420          -0.442          -0.491          -0.516          -0.265          -0.865          -0.395          -0.442          -0.287          -0.160          -0.018          -0.691          -0.733          -0.957          -1.423          -1.833          -3.723          -1.024           0.135           2.216           4.583           6.071           7.009           7.544           8.047           8.445           8.741           8.966           9.205           9.464           9.684           9.824           9.974          10.184          10.387          10.592          10.796          11.024          11.240          11.480          11.651          11.669          11.592          11.404          11.135          10.677          10.145          10.112          10.686          11.992          12.418          13.441          14.502          15.382          16.046          14.735          13.845          13.250          12.272          10.695           9.725           9.623          13.362          14.279          13.615          13.169          14.568          16.040          14.825          14.595          15.792          15.202          15.923          16.952          17.129          17.758          18.203          18.038          17.880          17.629          18.084          19.278          19.961
-5.750          -4.630          -5.332          -5.360          -4.972          -5.650          -5.269          -4.513          -3.861          -3.045          -4.026          -3.969          -4.186          -4.488          -3.584          -3.273          -3.491          -4.709          -4.703          -4.581          -3.360          -3.508          -3.076          -3.092          -3.032          -2.733          -2.179          -2.424          -2.675          -2.402          -2.333          -1.700          -2.194          -1.962          -1.761          -1.719          -1.176          -0.316          -0.173          -1.480          -1.241          -1.226          -1.311          -1.698          -1.804          -2.372          -2.273          -2.212          -2.339          -3.118          -4.019          -3.506          -3.393          -3.106          -2.525          -2.111          -1.892          -2.228          -1.988          -1.368          -1.137          -1.727          -1.062          -0.798          -0.132          -0.110          -0.467          -0.839          -0.723          -0.680          -0.807          -0.640          -0.950          -1.161          -1.329          -1.542          -1.661          -1.376          -1.201           0.239          -0.289           0.127           0.183           0.172           0.163           0.167           0.161           0.167           0.177           0.188           0.158           0.174           0.176           0.167           0.170           0.175           0.113           0.158          -0.026          -0.191           0.100           0.071          -0.272          -0.492          -0.523          -0.612          -0.697          -0.759          -0.504          -0.930          -0.963          -0.592          -0.103          -0.322          -0.685          -0.851          -1.172          -1.182          -2.657          -2.562          -0.009           1.316           2.955           4.817           6.196           7.095           7.714           8.319           8.757           8.991           9.180           9.413           9.582           9.727           9.894           9.996          10.093          10.319          10.569          10.816          10.999          11.067          11.227          11.679          12.032          12.330          12.479          12.161          12.143          11.334          10.401           9.546           9.604          10.245          11.625          13.044          14.744          15.694          16.176          14.527          13.346          12.945          11.675          11.058          10.369          11.451          13.081          13.204          13.215          13.987          15.946          14.981          14.554          15.198          15.104          15.808          16.606          16.843          17.559          18.543          18.331          18.074          17.690          18.196          19.191          19.978
-5.916          -1.650          -5.200          -5.160          -4.629          -6.572          -5.409          -4.737          -2.901          -4.616          -3.896          -3.523          -4.261          -5.289          -3.248          -3.026          -4.431          -4.681          -4.443          -4.029          -3.613          -3.597          -3.000          -2.859          -3.136          -3.153          -2.882          -2.762          -2.717          -2.189          -1.969          -1.337          -1.593          -1.358          -1.408          -1.179           0.722          -1.372          -1.784          -1.708          -1.290          -1.174          -1.301          -1.224          -1.527          -1.449          -1.683          -1.543          -1.802          -2.326          -3.112          -3.813          -3.592          -3.580          -3.524          -3.054          -2.827          -2.695          -2.818          -2.713          -1.062          -1.403          -1.350          -0.808          -0.709          -0.374          -0.002           0.257          -0.039           0.230          -0.149          -1.050          -1.136          -0.476          -0.303          -0.591          -1.211          -1.278           0.639           0.650           0.326           1.484           0.975           0.245          -0.020          -0.050           0.022           0.110           0.148           0.154           0.153           0.145           0.152           0.188           0.155          -0.135          -0.293          -0.534          -0.640          -0.514          -0.665          -0.592          -0.587          -0.812          -0.759          -0.746          -0.873          -1.023          -1.154          -0.933          -0.652          -0.915          -0.329          -0.845          -1.215          -1.274          -1.742          -4.481          -3.742          -1.177           0.445           2.115           3.815           5.411           6.604           7.401           7.976           8.302           8.543           8.739           8.905           9.073           9.247           9.469           9.687           9.868          10.038          10.216          10.312          10.449          10.633          10.833          11.060          11.335          11.569          11.952          12.131          12.295          12.575          12.797          12.550          11.859          11.208          10.170          10.072          10.611          12.761          14.564          15.810          15.195          13.741          13.192          12.384          11.248          11.120          10.861          12.709          12.947          13.692          13.977          15.718          15.773          14.298          15.106          15.376          16.034          16.437          16.677          17.371          18.618          18.599          17.965          17.614          18.257          19.213          19.843
-5.541           0.621          -4.877          -5.764          -5.273          -6.062          -4.590          -3.961          -2.318          -3.608          -3.192          -3.170          -4.291          -3.614          -3.064          -3.588          -4.797          -4.293          -3.905          -3.738          -3.809          -3.558          -2.779          -3.347          -3.037          -2.479          -2.268          -1.413          -0.364          -1.463          -2.088          -0.802          -1.839          -1.924          -1.545          -2.845          -1.105           0.333          -1.487          -1.249          -0.846           0.331           0.441          -0.661          -0.999          -1.256          -1.243          -1.431          -1.339          -1.623          -1.934          -3.360          -3.908          -3.849          -3.720          -3.637          -3.383          -2.951          -2.684          -0.494          -2.672          -1.887          -1.396          -0.891          -0.733           0.135           0.216          -0.151           0.059           0.009          -0.178           0.334           0.045          -0.143          -0.856          -0.596          -0.876          -0.674          -1.882          -2.487          -2.671          -2.190           0.040           0.810           0.321          -0.100          -0.252          -0.181          -0.007           0.122           0.152           0.151           0.172           0.199           0.122          -0.140          -0.200          -0.348          -0.492          -0.613          -0.676          -0.950          -0.190          -0.007           0.126           0.149           0.180           0.101           0.080          -0.010          -0.045          -0.732          -0.458          -0.608          -0.900          -1.195          -1.587          -4.496          -3.785          -1.314           0.481           2.700           4.288           5.683           6.647           7.369           7.948           8.380           8.519           8.616           8.682           8.703           8.694           8.793           8.931           9.097           9.420           9.763           9.774           9.978          10.159          10.359          10.586          10.751          10.877          10.994          11.301          11.745          12.078          12.586          13.086          13.311          12.608          11.806          10.998           9.973          11.289          12.387          13.729          14.855          14.431          13.523          13.069          11.911          11.362          11.184          12.172          13.072          13.822          13.885          15.078          16.149          14.263          15.303          15.321          16.100          16.609          16.643          17.390          18.306          18.825          18.360          17.895          18.513          19.315          19.784
-5.479           0.745          -5.313          -4.969          -4.990          -4.910          -3.878          -3.619          -4.479          -3.780          -3.439          -3.308          -4.568          -3.815          -2.113          -3.529          -4.801          -3.130          -3.667          -3.632          -3.633          -3.306          -3.345          -3.358          -3.003          -2.729          -2.575          -2.520          -2.531          -2.066          -1.020           0.245           0.231          -0.004          -0.035          -1.660          -1.550           0.296           0.187           0.058           0.424          -0.556          -1.334          -2.164          -2.298          -1.577          -1.434          -1.368          -1.404          -1.547          -1.601          -2.258          -3.612          -4.014          -3.821          -3.639          -3.780          -3.675           0.033          -3.917          -2.295          -2.757          -2.159          -0.666          -0.840          -0.767          -0.958          -0.422          -0.158          -0.029          -0.270          -0.211          -0.055           0.067          -0.468          -1.147          -1.290          -0.899          -0.225           0.088          -0.071          -0.629          -0.732          -1.034          -1.164           0.162           0.271          -0.283          -0.545          -0.525          -0.363          -0.153           0.026           0.111           0.136           0.181           0.256           0.203           0.144           0.331           0.266           0.256           0.196           0.160           0.170           0.183           0.161           0.102           0.018          -0.966          -1.065          -0.769          -0.437          -0.576          -0.834          -1.174          -1.565          -4.364          -4.194          -1.906          -0.172           2.712           4.610           5.775           6.570           7.125           7.629           8.097           8.466           8.667           8.821           8.990           9.062           9.081           9.041           9.022           9.038           9.024           9.027           8.965           9.145           9.374           9.680           9.893          10.146          10.354          10.461          10.672          11.127          11.961          12.710          13.248          13.511          13.367          12.627          11.903          10.804          11.373          11.972          13.708          14.460          13.686          13.434          12.521          11.486          11.604          12.040          12.770          13.893          14.005          14.229          15.873          14.475          15.612          14.860          15.905          16.906          16.797          17.038          17.760          18.907          18.338          17.403          18.039          19.203          19.823
-4.849          -0.439          -5.384          -4.357          -4.566          -3.659          -3.812          -3.678          -1.674          -1.080          -3.128          -3.130          -3.672          -1.422          -3.617          -2.564          -3.805          -3.822          -3.454          -2.781          -3.203          -3.234          -3.122          -2.876          -3.041          -2.391          -2.849          -2.762          -2.462          -2.379          -2.261          -2.075          -1.306          -1.318           0.013           0.399           0.925          -1.139          -1.614          -1.154          -0.006           0.179          -1.858          -2.269          -1.438          -1.120          -1.242          -1.431          -1.676          -1.813          -1.748          -1.889          -2.725          -3.810          -4.004          -3.793          -3.796           0.392          -3.272          -3.118          -2.459          -1.971          -2.257          -2.094          -1.666          -2.327          -1.951          -1.568          -1.533          -0.938          -0.411          -0.139          -1.002          -1.131          -1.455          -1.137          -1.181          -1.186          -0.901          -0.575          -0.541           0.024           0.207          -0.852          -0.864          -0.586          -0.153          -0.255           0.271           0.218           0.145           0.140           0.150           0.144           0.155           0.166           0.138           0.059           0.014           0.056           0.140           0.186           0.184           0.160           0.161           0.220           0.241           0.055          -0.007          -0.131          -0.177          -0.807          -0.836          -0.822          -0.892          -1.312          -1.529          -2.170          -4.389          -3.356          -1.626           0.099           2.949           4.755           5.774           6.173           6.376           6.524           6.739           7.066           7.213           7.395           7.731           8.135           8.370           8.600           8.920           9.299           9.765          10.259          10.383          10.355          10.376          10.502          10.502          10.442          10.501          10.694          10.792          10.766          10.702          11.637          13.254          13.633          12.381          12.479          11.138          12.142          11.765          12.527          13.289          13.457          13.381          13.210          11.708          11.676          12.110          12.872          13.695          14.189          13.902          15.483          14.646          15.972          14.735          16.026          16.270          16.610          17.155          17.523          18.808          18.399          17.768          16.921          18.676          19.720
