1.9741861e+03   1.9737456e+03   1.9733050e+03   1.9728645e+03   1.9724240e+03   1.9719835e+03   1.9715430e+03   1.9711024e+03   1.9706619e+03   1.9702214e+03   1.9697809e+03   1.9693403e+03   1.9688998e+03   1.9684593e+03   1.9680188e+03   1.9675782e+03   1.9671377e+03   1.9600892e+03   1.9535650e+03   1.9470407e+03   1.9427709e+03   1.9385011e+03   1.9373902e+03   1.9362793e+03   1.9324697e+03   1.9286600e+03   1.9240482e+03   1.9194364e+03   1.9144485e+03   1.9094606e+03   1.9048199e+03   1.9001791e+03   1.8951746e+03   1.8901701e+03   1.8852203e+03   1.8802704e+03   1.8781053e+03   1.8759401e+03   1.8777658e+03   1.8795914e+03   1.8950657e+03   1.9105401e+03   1.9208740e+03   1.9312079e+03   1.9306309e+03   1.9300538e+03   1.9294767e+03   1.9288996e+03   1.9291393e+03   1.9293790e+03   1.9296187e+03   1.9298584e+03   1.9298674e+03   1.9298765e+03   1.9298855e+03   1.9298946e+03   1.9297718e+03   1.9296489e+03   1.9295260e+03   1.9294031e+03   1.9290352e+03   1.9286672e+03   1.9282993e+03   1.9279313e+03   1.9273506e+03   1.9267700e+03   1.9261893e+03   1.9256086e+03   1.9247322e+03   1.9238558e+03   1.9229794e+03   1.9221030e+03   1.9209851e+03   1.9198673e+03   1.9187494e+03   1.9176316e+03   1.9135635e+03   1.9094955e+03   1.9059906e+03   1.9024857e+03   1.8999456e+03   1.8974054e+03   1.8956177e+03   1.8938299e+03   1.8938011e+03   1.8937723e+03   1.8943842e+03   1.8949959e+03   1.8971895e+03   1.8993830e+03   1.9017361e+03   1.9040891e+03
2.0116686e+03   2.0112333e+03   2.0107979e+03   2.0103626e+03   2.0099273e+03   2.0094919e+03   2.0090566e+03   2.0086213e+03   2.0081860e+03   2.0077506e+03   2.0073153e+03   2.0068800e+03   2.0064446e+03   2.0060093e+03   2.0055740e+03   2.0051386e+03   2.0047033e+03   1.9977380e+03   1.9904793e+03   1.9832205e+03   1.9788927e+03   1.9745649e+03   1.9737851e+03   1.9730053e+03   1.9698407e+03   1.9666761e+03   1.9620883e+03   1.9575006e+03   1.9523693e+03   1.9472380e+03   1.9423254e+03   1.9374127e+03   1.9329088e+03   1.9284048e+03   1.9254822e+03   1.9225596e+03   1.9219601e+03   1.9213606e+03   1.9231173e+03   1.9248741e+03   1.9361383e+03   1.9474026e+03   1.9573540e+03   1.9673054e+03   1.9667024e+03   1.9660993e+03   1.9654962e+03   1.9648932e+03   1.9650495e+03   1.9652058e+03   1.9653621e+03   1.9655184e+03   1.9654416e+03   1.9653649e+03   1.9652882e+03   1.9652114e+03   1.9650022e+03   1.9647930e+03   1.9645837e+03   1.9643745e+03   1.9639286e+03   1.9634827e+03   1.9630368e+03   1.9625910e+03   1.9619395e+03   1.9612880e+03   1.9606365e+03   1.9599850e+03   1.9590541e+03   1.9581232e+03   1.9571923e+03   1.9562614e+03   1.9550851e+03   1.9539088e+03   1.9527324e+03   1.9515561e+03   1.9473157e+03   1.9430753e+03   1.9394114e+03   1.9357474e+03   1.9330298e+03   1.9303123e+03   1.9283146e+03   1.9263168e+03   1.9261905e+03   1.9260642e+03   1.9265843e+03   1.9271044e+03   1.9297152e+03   1.9323261e+03   1.9350017e+03   1.9376773e+03
2.0491510e+03   2.0485655e+03   2.0479799e+03   2.0473944e+03   2.0468088e+03   2.0462233e+03   2.0456377e+03   2.0450522e+03   2.0444666e+03   2.0438811e+03   2.0432956e+03   2.0427100e+03   2.0421245e+03   2.0415389e+03   2.0409534e+03   2.0403678e+03   2.0397823e+03   2.0304136e+03   2.0231007e+03   2.0157878e+03   2.0116472e+03   2.0075067e+03   2.0072647e+03   2.0070228e+03   2.0044917e+03   2.0019606e+03   1.9977662e+03   1.9935717e+03   1.9886229e+03   1.9836741e+03   1.9787885e+03   1.9739028e+03   1.9696745e+03   1.9654462e+03   1.9630557e+03   1.9606651e+03   1.9604564e+03   1.9602478e+03   1.9623522e+03   1.9644566e+03   1.9737350e+03   1.9830134e+03   1.9922135e+03   2.0014136e+03   2.0006110e+03   1.9998083e+03   1.9990057e+03   1.9982030e+03   1.9982702e+03   1.9983374e+03   1.9984047e+03   1.9984719e+03   1.9983048e+03   1.9981378e+03   1.9979707e+03   1.9978037e+03   1.9975080e+03   1.9972123e+03   1.9969165e+03   1.9966208e+03   1.9960998e+03   1.9955789e+03   1.9950579e+03   1.9945370e+03   1.9938242e+03   1.9931113e+03   1.9923985e+03   1.9916858e+03   1.9907051e+03   1.9897243e+03   1.9887436e+03   1.9877629e+03   1.9865410e+03   1.9853192e+03   1.9840973e+03   1.9828754e+03   1.9784946e+03   1.9741138e+03   1.9702763e+03   1.9664388e+03   1.9635246e+03   1.9606103e+03   1.9583798e+03   1.9561493e+03   1.9559361e+03   1.9557230e+03   1.9562777e+03   1.9568325e+03   1.9595405e+03   1.9622486e+03   1.9667570e+03   1.9712655e+03
2.0866335e+03   2.0858977e+03   2.0851620e+03   2.0844262e+03   2.0836905e+03   2.0829547e+03   2.0822190e+03   2.0814832e+03   2.0807474e+03   2.0800117e+03   2.0792759e+03   2.0785402e+03   2.0778044e+03   2.0770687e+03   2.0763329e+03   2.0755972e+03   2.0748614e+03   2.0630893e+03   2.0557222e+03   2.0483551e+03   2.0444017e+03   2.0404484e+03   2.0407443e+03   2.0410402e+03   2.0391427e+03   2.0372452e+03   2.0334440e+03   2.0296428e+03   2.0248765e+03   2.0201102e+03   2.0152515e+03   2.0103929e+03   2.0064403e+03   2.0024877e+03   2.0006291e+03   1.9987705e+03   1.9989527e+03   1.9991350e+03   2.0015871e+03   2.0040391e+03   2.0113317e+03   2.0186242e+03   2.0270730e+03   2.0355218e+03   2.0345195e+03   2.0335173e+03   2.0325150e+03   2.0315128e+03   2.0314910e+03   2.0314691e+03   2.0314473e+03   2.0314254e+03   2.0311680e+03   2.0309107e+03   2.0306534e+03   2.0303960e+03   2.0300138e+03   2.0296316e+03   2.0292494e+03   2.0288671e+03   2.0282710e+03   2.0276750e+03   2.0270790e+03   2.0264830e+03   2.0257088e+03   2.0249347e+03   2.0241606e+03   2.0233865e+03   2.0223560e+03   2.0213255e+03   2.0202949e+03   2.0192644e+03   2.0179970e+03   2.0167296e+03   2.0154621e+03   2.0141947e+03   2.0096735e+03   2.0051523e+03   2.0011412e+03   1.9971302e+03   1.9940193e+03   1.9909083e+03   1.9884451e+03   1.9859819e+03   1.9856818e+03   1.9853817e+03   1.9859711e+03   1.9865605e+03   1.9893658e+03   1.9921711e+03   1.9985123e+03   2.0048536e+03
2.1134067e+03   2.1127643e+03   2.1121220e+03   2.1114796e+03   2.1108373e+03   2.1101949e+03   2.1095526e+03   2.1089102e+03   2.1082679e+03   2.1076255e+03   2.1069831e+03   2.1063408e+03   2.1056984e+03   2.1050561e+03   2.1044137e+03   2.1037714e+03   2.1031290e+03   2.0928512e+03   2.0860738e+03   2.0792964e+03   2.0756780e+03   2.0720597e+03   2.0724439e+03   2.0728282e+03   2.0713647e+03   2.0699013e+03   2.0665297e+03   2.0631581e+03   2.0587429e+03   2.0543277e+03   2.0496337e+03   2.0449398e+03   2.0409805e+03   2.0370212e+03   2.0350079e+03   2.0329946e+03   2.0332067e+03   2.0334189e+03   2.0363432e+03   2.0392675e+03   2.0469773e+03   2.0546872e+03   2.0609392e+03   2.0671910e+03   2.0662725e+03   2.0653539e+03   2.0644354e+03   2.0635169e+03   2.0627401e+03   2.0619633e+03   2.0616530e+03   2.0613427e+03   2.0609892e+03   2.0606357e+03   2.0602925e+03   2.0599493e+03   2.0595071e+03   2.0590649e+03   2.0585884e+03   2.0581118e+03   2.0570752e+03   2.0560386e+03   2.0552746e+03   2.0545105e+03   2.0536816e+03   2.0528528e+03   2.0520261e+03   2.0511994e+03   2.0502293e+03   2.0492592e+03   2.0484599e+03   2.0476606e+03   2.0467533e+03   2.0458462e+03   2.0433196e+03   2.0407931e+03   2.0361447e+03   2.0314963e+03   2.0290262e+03   2.0265562e+03   2.0232524e+03   2.0199487e+03   2.0172755e+03   2.0146022e+03   2.0142525e+03   2.0139028e+03   2.0144636e+03   2.0150243e+03   2.0176144e+03   2.0202044e+03   2.0254288e+03   2.0306532e+03
2.1401799e+03   2.1396309e+03   2.1390820e+03   2.1385330e+03   2.1379841e+03   2.1374351e+03   2.1368861e+03   2.1363372e+03   2.1357882e+03   2.1352392e+03   2.1346903e+03   2.1341413e+03   2.1335923e+03   2.1330434e+03   2.1324944e+03   2.1319455e+03   2.1313965e+03   2.1226132e+03   2.1164254e+03   2.1102377e+03   2.1069543e+03   2.1036710e+03   2.1041435e+03   2.1046161e+03   2.1035868e+03   2.1025574e+03   2.0996154e+03   2.0966734e+03   2.0926092e+03   2.0885451e+03   2.0840159e+03   2.0794867e+03   2.0755207e+03   2.0715547e+03   2.0693867e+03   2.0672187e+03   2.0674607e+03   2.0677027e+03   2.0710993e+03   2.0744958e+03   2.0826231e+03   2.0907503e+03   2.0948053e+03   2.0988603e+03   2.0980255e+03   2.0971906e+03   2.0963558e+03   2.0955210e+03   2.0939893e+03   2.0924575e+03   2.0918588e+03   2.0912601e+03   2.0908103e+03   2.0903606e+03   2.0899316e+03   2.0895026e+03   2.0890005e+03   2.0884983e+03   2.0879274e+03   2.0873565e+03   2.0858794e+03   2.0844023e+03   2.0834702e+03   2.0825380e+03   2.0816544e+03   2.0807708e+03   2.0798915e+03   2.0790123e+03   2.0781026e+03   2.0771929e+03   2.0766248e+03   2.0760567e+03   2.0755097e+03   2.0749627e+03   2.0711771e+03   2.0673916e+03   2.0626159e+03   2.0578403e+03   2.0569113e+03   2.0559822e+03   2.0524856e+03   2.0489891e+03   2.0461058e+03   2.0432225e+03   2.0428232e+03   2.0424240e+03   2.0429561e+03   2.0434881e+03   2.0458629e+03   2.0482378e+03   2.0523453e+03   2.0564528e+03
2.1669531e+03   2.1664488e+03   2.1659444e+03   2.1654401e+03   2.1649357e+03   2.1644313e+03   2.1639270e+03   2.1634227e+03   2.1629183e+03   2.1624140e+03   2.1619096e+03   2.1614052e+03   2.1609009e+03   2.1603966e+03   2.1598922e+03   2.1593879e+03   2.1588835e+03   2.1508138e+03   2.1449489e+03   2.1390841e+03   2.1360395e+03   2.1329950e+03   2.1336129e+03   2.1342309e+03   2.1335577e+03   2.1328845e+03   2.1303154e+03   2.1277463e+03   2.1239266e+03   2.1201068e+03   2.1157451e+03   2.1113835e+03   2.1074513e+03   2.1035190e+03   2.1012751e+03   2.0990312e+03   2.0992764e+03   2.0995216e+03   2.1026707e+03   2.1058198e+03   2.1130527e+03   2.1202856e+03   2.1243962e+03   2.1285067e+03   2.1275039e+03   2.1265010e+03   2.1254983e+03   2.1244955e+03   2.1229186e+03   2.1213418e+03   2.1204029e+03   2.1194640e+03   2.1188683e+03   2.1182727e+03   2.1177485e+03   2.1172242e+03   2.1166465e+03   2.1160688e+03   2.1153308e+03   2.1145927e+03   2.1130701e+03   2.1115475e+03   2.1104444e+03   2.1093412e+03   2.1083604e+03   2.1073796e+03   2.1064337e+03   2.1054878e+03   2.1046262e+03   2.1037647e+03   2.1028485e+03   2.1019324e+03   2.1011224e+03   2.1003125e+03   2.0970892e+03   2.0938660e+03   2.0895506e+03   2.0852351e+03   2.0838308e+03   2.0824263e+03   2.0788106e+03   2.0751950e+03   2.0722129e+03   2.0692309e+03   2.0688603e+03   2.0684896e+03   2.0689704e+03   2.0694513e+03   2.0719378e+03   2.0744244e+03   2.0783384e+03   2.0822524e+03
2.1937263e+03   2.1932666e+03   2.1928068e+03   2.1923471e+03   2.1918873e+03   2.1914276e+03   2.1909678e+03   2.1905081e+03   2.1900484e+03   2.1895886e+03   2.1891289e+03   2.1886691e+03   2.1882094e+03   2.1877496e+03   2.1872899e+03   2.1868301e+03   2.1863704e+03   2.1790144e+03   2.1734724e+03   2.1679304e+03   2.1651247e+03   2.1623190e+03   2.1630823e+03   2.1638457e+03   2.1635287e+03   2.1632117e+03   2.1610154e+03   2.1588192e+03   2.1552438e+03   2.1516685e+03   2.1474744e+03   2.1432803e+03   2.1393818e+03   2.1354834e+03   2.1331636e+03   2.1308437e+03   2.1310921e+03   2.1313405e+03   2.1342421e+03   2.1371437e+03   2.1434824e+03   2.1498210e+03   2.1539870e+03   2.1581531e+03   2.1569823e+03   2.1558115e+03   2.1546407e+03   2.1534699e+03   2.1518480e+03   2.1502261e+03   2.1489470e+03   2.1476679e+03   2.1469263e+03   2.1461848e+03   2.1455653e+03   2.1449458e+03   2.1442926e+03   2.1436393e+03   2.1427342e+03   2.1418290e+03   2.1402609e+03   2.1386927e+03   2.1374186e+03   2.1361444e+03   2.1350665e+03   2.1339885e+03   2.1329758e+03   2.1319632e+03   2.1311498e+03   2.1303364e+03   2.1290722e+03   2.1278080e+03   2.1267351e+03   2.1256622e+03   2.1230014e+03   2.1203405e+03   2.1164852e+03   2.1126300e+03   2.1107503e+03   2.1088705e+03   2.1051357e+03   2.1014008e+03   2.0983201e+03   2.0952393e+03   2.0948973e+03   2.0945553e+03   2.0949848e+03   2.0954144e+03   2.0980127e+03   2.1006109e+03   2.1043315e+03   2.1080521e+03
2.2204994e+03   2.2200608e+03   2.2196221e+03   2.2191835e+03   2.2187448e+03   2.2183062e+03   2.2178675e+03   2.2174289e+03   2.2169902e+03   2.2165516e+03   2.2161130e+03   2.2156743e+03   2.2152357e+03   2.2147970e+03   2.2143584e+03   2.2139197e+03   2.2134811e+03   2.2064628e+03   2.2011036e+03   2.1957445e+03   2.1931085e+03   2.1904726e+03   2.1901590e+03   2.1898454e+03   2.1900847e+03   2.1903241e+03   2.1889019e+03   2.1874798e+03   2.1846957e+03   2.1819117e+03   2.1788656e+03   2.1758195e+03   2.1726806e+03   2.1695417e+03   2.1671155e+03   2.1646892e+03   2.1643001e+03   2.1639109e+03   2.1661885e+03   2.1684662e+03   2.1731847e+03   2.1779032e+03   2.1819200e+03   2.1859369e+03   2.1847182e+03   2.1834996e+03   2.1822809e+03   2.1810623e+03   2.1793258e+03   2.1775894e+03   2.1761667e+03   2.1747440e+03   2.1738798e+03   2.1730156e+03   2.1722937e+03   2.1715717e+03   2.1708477e+03   2.1701237e+03   2.1691027e+03   2.1680818e+03   2.1664168e+03   2.1647518e+03   2.1633632e+03   2.1619745e+03   2.1608143e+03   2.1596540e+03   2.1585551e+03   2.1574563e+03   2.1566057e+03   2.1557552e+03   2.1541208e+03   2.1524864e+03   2.1511168e+03   2.1497473e+03   2.1476502e+03   2.1455531e+03   2.1421420e+03   2.1387310e+03   2.1363434e+03   2.1339559e+03   2.1301354e+03   2.1263150e+03   2.1231634e+03   2.1200118e+03   2.1196887e+03   2.1193657e+03   2.1197884e+03   2.1202110e+03   2.1231523e+03   2.1260936e+03   2.1299727e+03   2.1338517e+03
2.2472726e+03   2.2468551e+03   2.2464375e+03   2.2460200e+03   2.2456024e+03   2.2451849e+03   2.2447673e+03   2.2443498e+03   2.2439322e+03   2.2435147e+03   2.2430972e+03   2.2426796e+03   2.2422621e+03   2.2418445e+03   2.2414270e+03   2.2410094e+03   2.2405919e+03   2.2339112e+03   2.2287348e+03   2.2235585e+03   2.2210923e+03   2.2186262e+03   2.2172357e+03   2.2158451e+03   2.2166408e+03   2.2174364e+03   2.2167884e+03   2.2161404e+03   2.2141476e+03   2.2121549e+03   2.2102568e+03   2.2083587e+03   2.2059794e+03   2.2036000e+03   2.2010674e+03   2.1985347e+03   2.1975081e+03   2.1964814e+03   2.1981350e+03   2.1997886e+03   2.2028870e+03   2.2059853e+03   2.2098529e+03   2.2137206e+03   2.2124542e+03   2.2111877e+03   2.2099212e+03   2.2086547e+03   2.2068036e+03   2.2049526e+03   2.2033863e+03   2.2018201e+03   2.2008332e+03   2.1998464e+03   2.1990220e+03   2.1981976e+03   2.1974028e+03   2.1966081e+03   2.1954713e+03   2.1943345e+03   2.1925727e+03   2.1908109e+03   2.1893077e+03   2.1878046e+03   2.1865620e+03   2.1853195e+03   2.1841344e+03   2.1829493e+03   2.1820617e+03   2.1811740e+03   2.1791694e+03   2.1771648e+03   2.1754986e+03   2.1738324e+03   2.1722990e+03   2.1707657e+03   2.1677988e+03   2.1648319e+03   2.1619366e+03   2.1590412e+03   2.1551352e+03   2.1512292e+03   2.1480067e+03   2.1447842e+03   2.1444802e+03   2.1441761e+03   2.1445919e+03   2.1450077e+03   2.1482920e+03   2.1515763e+03   2.1556138e+03   2.1596513e+03
2.2740458e+03   2.2736043e+03   2.2731628e+03   2.2727214e+03   2.2722799e+03   2.2718384e+03   2.2713969e+03   2.2709554e+03   2.2705140e+03   2.2700725e+03   2.2696310e+03   2.2691895e+03   2.2687480e+03   2.2683065e+03   2.2678651e+03   2.2674236e+03   2.2669821e+03   2.2599183e+03   2.2549971e+03   2.2500758e+03   2.2476608e+03   2.2452458e+03   2.2438196e+03   2.2423935e+03   2.2430833e+03   2.2437730e+03   2.2429726e+03   2.2421721e+03   2.2400927e+03   2.2380134e+03   2.2361687e+03   2.2343241e+03   2.2320831e+03   2.2298421e+03   2.2275226e+03   2.2252029e+03   2.2243862e+03   2.2235693e+03   2.2252513e+03   2.2269331e+03   2.2298808e+03   2.2328285e+03   2.2364981e+03   2.2401677e+03   2.2387451e+03   2.2373225e+03   2.2358999e+03   2.2344774e+03   2.2326603e+03   2.2308432e+03   2.2291737e+03   2.2275041e+03   2.2264344e+03   2.2253647e+03   2.2244551e+03   2.2235454e+03   2.2226829e+03   2.2218203e+03   2.2206068e+03   2.2193933e+03   2.2175475e+03   2.2157016e+03   2.2141167e+03   2.2125318e+03   2.2112146e+03   2.2098974e+03   2.2086137e+03   2.2073300e+03   2.2063853e+03   2.2054407e+03   2.2032071e+03   2.2009734e+03   2.1990968e+03   2.1972202e+03   2.1959569e+03   2.1946937e+03   2.1919702e+03   2.1892468e+03   2.1858360e+03   2.1824253e+03   2.1784551e+03   2.1744849e+03   2.1711894e+03   2.1678939e+03   2.1676029e+03   2.1673120e+03   2.1677753e+03   2.1682387e+03   2.1713747e+03   2.1745108e+03   2.1799808e+03   2.1854509e+03
2.3008190e+03   2.3003536e+03   2.2998881e+03   2.2994227e+03   2.2989573e+03   2.2984919e+03   2.2980264e+03   2.2975610e+03   2.2970956e+03   2.2966302e+03   2.2961647e+03   2.2956993e+03   2.2952339e+03   2.2947685e+03   2.2943030e+03   2.2938376e+03   2.2933722e+03   2.2859255e+03   2.2812593e+03   2.2765931e+03   2.2742292e+03   2.2718653e+03   2.2704036e+03   2.2689419e+03   2.2695258e+03   2.2701097e+03   2.2691567e+03   2.2682037e+03   2.2660377e+03   2.2638718e+03   2.2620806e+03   2.2602895e+03   2.2581869e+03   2.2560843e+03   2.2539778e+03   2.2518712e+03   2.2512643e+03   2.2506573e+03   2.2523675e+03   2.2540777e+03   2.2568747e+03   2.2596717e+03   2.2631432e+03   2.2666147e+03   2.2650360e+03   2.2634573e+03   2.2618787e+03   2.2603000e+03   2.2585170e+03   2.2567339e+03   2.2549610e+03   2.2531881e+03   2.2520355e+03   2.2508830e+03   2.2498881e+03   2.2488932e+03   2.2479629e+03   2.2470326e+03   2.2457423e+03   2.2444520e+03   2.2425222e+03   2.2405924e+03   2.2389257e+03   2.2372590e+03   2.2358672e+03   2.2344754e+03   2.2330930e+03   2.2317106e+03   2.2307090e+03   2.2297074e+03   2.2272447e+03   2.2247821e+03   2.2226951e+03   2.2206080e+03   2.2196148e+03   2.2186217e+03   2.2161417e+03   2.2136616e+03   2.2097355e+03   2.2058094e+03   2.2017750e+03   2.1977406e+03   2.1943721e+03   2.1910036e+03   2.1907257e+03   2.1904478e+03   2.1909587e+03   2.1914697e+03   2.1944575e+03   2.1974453e+03   2.2043479e+03   2.2112505e+03
2.3241847e+03   2.3237799e+03   2.3233751e+03   2.3229703e+03   2.3225655e+03   2.3221607e+03   2.3217559e+03   2.3213511e+03   2.3209462e+03   2.3205414e+03   2.3201366e+03   2.3197318e+03   2.3193270e+03   2.3189222e+03   2.3185174e+03   2.3181126e+03   2.3177078e+03   2.3112309e+03   2.3068543e+03   2.3024778e+03   2.3001171e+03   2.2977564e+03   2.2960152e+03   2.2942739e+03   2.2947315e+03   2.2951890e+03   2.2941638e+03   2.2931386e+03   2.2909555e+03   2.2887725e+03   2.2870496e+03   2.2853266e+03   2.2832996e+03   2.2812726e+03   2.2792374e+03   2.2772022e+03   2.2766707e+03   2.2761392e+03   2.2778984e+03   2.2796575e+03   2.2823943e+03   2.2851310e+03   2.2883664e+03   2.2916017e+03   2.2900292e+03   2.2884567e+03   2.2868841e+03   2.2853117e+03   2.2832432e+03   2.2811746e+03   2.2793038e+03   2.2774329e+03   2.2762721e+03   2.2751112e+03   2.2740797e+03   2.2730481e+03   2.2720576e+03   2.2710673e+03   2.2697111e+03   2.2683549e+03   2.2663102e+03   2.2642654e+03   2.2625279e+03   2.2607903e+03   2.2593242e+03   2.2578580e+03   2.2563801e+03   2.2549022e+03   2.2538816e+03   2.2528610e+03   2.2502833e+03   2.2477056e+03   2.2454853e+03   2.2432649e+03   2.2423443e+03   2.2414237e+03   2.2390196e+03   2.2366155e+03   2.2325204e+03   2.2284253e+03   2.2243268e+03   2.2202284e+03   2.2167864e+03   2.2133445e+03   2.2130842e+03   2.2128239e+03   2.2133171e+03   2.2138102e+03   2.2164340e+03   2.2190577e+03   2.2244030e+03   2.2297483e+03
2.3475504e+03   2.3472062e+03   2.3468620e+03   2.3465178e+03   2.3461736e+03   2.3458294e+03   2.3454852e+03   2.3451410e+03   2.3447968e+03   2.3444527e+03   2.3441085e+03   2.3437643e+03   2.3434201e+03   2.3430759e+03   2.3427317e+03   2.3423875e+03   2.3420433e+03   2.3365363e+03   2.3324493e+03   2.3283624e+03   2.3260050e+03   2.3236476e+03   2.3216267e+03   2.3196059e+03   2.3199371e+03   2.3202684e+03   2.3191709e+03   2.3180735e+03   2.3158733e+03   2.3136732e+03   2.3120185e+03   2.3103638e+03   2.3084124e+03   2.3064610e+03   2.3044970e+03   2.3025331e+03   2.3020771e+03   2.3016211e+03   2.3034293e+03   2.3052374e+03   2.3079138e+03   2.3105903e+03   2.3135895e+03   2.3165888e+03   2.3150224e+03   2.3134560e+03   2.3118897e+03   2.3103233e+03   2.3079694e+03   2.3056154e+03   2.3036466e+03   2.3016778e+03   2.3005086e+03   2.2993395e+03   2.2982712e+03   2.2972029e+03   2.2961524e+03   2.2951019e+03   2.2936798e+03   2.2922578e+03   2.2900981e+03   2.2879385e+03   2.2861301e+03   2.2843216e+03   2.2827811e+03   2.2812407e+03   2.2796672e+03   2.2780938e+03   2.2770542e+03   2.2760146e+03   2.2733219e+03   2.2706292e+03   2.2682755e+03   2.2659218e+03   2.2650738e+03   2.2642258e+03   2.2618976e+03   2.2595694e+03   2.2553053e+03   2.2510412e+03   2.2468787e+03   2.2427161e+03   2.2392007e+03   2.2356854e+03   2.2354427e+03   2.2352000e+03   2.2356754e+03   2.2361508e+03   2.2384105e+03   2.2406702e+03   2.2444582e+03   2.2482462e+03
2.3709160e+03   2.3706016e+03   2.3702872e+03   2.3699728e+03   2.3696584e+03   2.3693440e+03   2.3690296e+03   2.3687152e+03   2.3684008e+03   2.3680865e+03   2.3677721e+03   2.3674577e+03   2.3671433e+03   2.3668289e+03   2.3665145e+03   2.3662001e+03   2.3658857e+03   2.3608553e+03   2.3569025e+03   2.3529497e+03   2.3505001e+03   2.3480506e+03   2.3459755e+03   2.3439004e+03   2.3441424e+03   2.3443844e+03   2.3432392e+03   2.3420940e+03   2.3398912e+03   2.3376884e+03   2.3360746e+03   2.3344608e+03   2.3325414e+03   2.3306220e+03   2.3286754e+03   2.3267289e+03   2.3262769e+03   2.3258250e+03   2.3276497e+03   2.3294743e+03   2.3321336e+03   2.3347929e+03   2.3376446e+03   2.3404963e+03   2.3387995e+03   2.3371027e+03   2.3354060e+03   2.3337092e+03   2.3311620e+03   2.3286147e+03   2.3267051e+03   2.3247954e+03   2.3236747e+03   2.3225540e+03   2.3214287e+03   2.3203034e+03   2.3191615e+03   2.3180197e+03   2.3164969e+03   2.3149741e+03   2.3126122e+03   2.3102503e+03   2.3083556e+03   2.3064609e+03   2.3048439e+03   2.3032270e+03   2.3015820e+03   2.2999371e+03   2.2989515e+03   2.2979658e+03   2.2952245e+03   2.2924833e+03   2.2900909e+03   2.2876984e+03   2.2868616e+03   2.2860248e+03   2.2836713e+03   2.2813178e+03   2.2767192e+03   2.2721206e+03   2.2678772e+03   2.2636339e+03   2.2600192e+03   2.2564046e+03   2.2560280e+03   2.2556514e+03   2.2559500e+03   2.2562486e+03   2.2583919e+03   2.2605351e+03   2.2636396e+03   2.2667441e+03
2.3942817e+03   2.3939971e+03   2.3937125e+03   2.3934279e+03   2.3931433e+03   2.3928587e+03   2.3925741e+03   2.3922895e+03   2.3920049e+03   2.3917202e+03   2.3914356e+03   2.3911510e+03   2.3908664e+03   2.3905818e+03   2.3902972e+03   2.3900126e+03   2.3897280e+03   2.3851744e+03   2.3813557e+03   2.3775370e+03   2.3749953e+03   2.3724536e+03   2.3703242e+03   2.3681949e+03   2.3683476e+03   2.3685004e+03   2.3673075e+03   2.3661146e+03   2.3639091e+03   2.3617035e+03   2.3601307e+03   2.3585579e+03   2.3566704e+03   2.3547830e+03   2.3528538e+03   2.3509247e+03   2.3504768e+03   2.3500289e+03   2.3518700e+03   2.3537112e+03   2.3563534e+03   2.3589955e+03   2.3616997e+03   2.3644038e+03   2.3625766e+03   2.3607494e+03   2.3589223e+03   2.3570951e+03   2.3543546e+03   2.3516141e+03   2.3497635e+03   2.3479130e+03   2.3468408e+03   2.3457685e+03   2.3445862e+03   2.3434039e+03   2.3421707e+03   2.3409374e+03   2.3393139e+03   2.3376904e+03   2.3351263e+03   2.3325621e+03   2.3305811e+03   2.3286002e+03   2.3269067e+03   2.3252132e+03   2.3234968e+03   2.3217805e+03   2.3208487e+03   2.3199169e+03   2.3171272e+03   2.3143375e+03   2.3119062e+03   2.3094750e+03   2.3086494e+03   2.3078238e+03   2.3054451e+03   2.3030663e+03   2.2981331e+03   2.2932000e+03   2.2888758e+03   2.2845516e+03   2.2808377e+03   2.2771239e+03   2.2766134e+03   2.2761029e+03   2.2762247e+03   2.2763465e+03   2.2783733e+03   2.2804000e+03   2.2828210e+03   2.2852419e+03
2.4176474e+03   2.4173775e+03   2.4171076e+03   2.4168377e+03   2.4165678e+03   2.4162980e+03   2.4160281e+03   2.4157582e+03   2.4154883e+03   2.4152184e+03   2.4149485e+03   2.4146786e+03   2.4144088e+03   2.4141389e+03   2.4138690e+03   2.4135991e+03   2.4133292e+03   2.4090109e+03   2.4052503e+03   2.4014896e+03   2.3988234e+03   2.3961572e+03   2.3934507e+03   2.3907441e+03   2.3906137e+03   2.3904833e+03   2.3892114e+03   2.3879396e+03   2.3858579e+03   2.3837763e+03   2.3822047e+03   2.3806330e+03   2.3789382e+03   2.3772433e+03   2.3756640e+03   2.3740847e+03   2.3737239e+03   2.3733631e+03   2.3748711e+03   2.3763792e+03   2.3787693e+03   2.3811595e+03   2.3832820e+03   2.3854045e+03   2.3841436e+03   2.3828827e+03   2.3811837e+03   2.3794847e+03   2.3767963e+03   2.3741079e+03   2.3722480e+03   2.3703881e+03   2.3691579e+03   2.3679277e+03   2.3666216e+03   2.3653155e+03   2.3639458e+03   2.3625760e+03   2.3608761e+03   2.3591762e+03   2.3562621e+03   2.3533480e+03   2.3512168e+03   2.3490855e+03   2.3473168e+03   2.3455481e+03   2.3437704e+03   2.3419927e+03   2.3411595e+03   2.3403262e+03   2.3375664e+03   2.3348066e+03   2.3325482e+03   2.3302898e+03   2.3294069e+03   2.3285240e+03   2.3259879e+03   2.3234518e+03   2.3185272e+03   2.3136026e+03   2.3091896e+03   2.3047767e+03   2.3009482e+03   2.2971197e+03   2.2963853e+03   2.2956508e+03   2.2955357e+03   2.2954206e+03   2.2974613e+03   2.2995019e+03   2.3016208e+03   2.3037397e+03
2.4410131e+03   2.4407579e+03   2.4405028e+03   2.4402476e+03   2.4399924e+03   2.4397372e+03   2.4394821e+03   2.4392269e+03   2.4389717e+03   2.4387165e+03   2.4384614e+03   2.4382062e+03   2.4379510e+03   2.4376958e+03   2.4374407e+03   2.4371855e+03   2.4369303e+03   2.4328474e+03   2.4291449e+03   2.4254423e+03   2.4226516e+03   2.4198608e+03   2.4165771e+03   2.4132934e+03   2.4128799e+03   2.4124663e+03   2.4111154e+03   2.4097645e+03   2.4078068e+03   2.4058491e+03   2.4042787e+03   2.4027082e+03   2.4012059e+03   2.3997036e+03   2.3984742e+03   2.3972448e+03   2.3969711e+03   2.3966973e+03   2.3978722e+03   2.3990472e+03   2.4011853e+03   2.4033234e+03   2.4048643e+03   2.4064052e+03   2.4057105e+03   2.4050159e+03   2.4034451e+03   2.4018743e+03   2.3992380e+03   2.3966017e+03   2.3947325e+03   2.3928633e+03   2.3914751e+03   2.3900869e+03   2.3886570e+03   2.3872272e+03   2.3857209e+03   2.3842146e+03   2.3824383e+03   2.3806619e+03   2.3773979e+03   2.3741339e+03   2.3718524e+03   2.3695709e+03   2.3677270e+03   2.3658830e+03   2.3640440e+03   2.3622050e+03   2.3614702e+03   2.3607355e+03   2.3580056e+03   2.3552757e+03   2.3531902e+03   2.3511046e+03   2.3501645e+03   2.3492243e+03   2.3465307e+03   2.3438372e+03   2.3389212e+03   2.3340052e+03   2.3295035e+03   2.3250018e+03   2.3210586e+03   2.3171155e+03   2.3161571e+03   2.3151987e+03   2.3148467e+03   2.3144947e+03   2.3165493e+03   2.3186038e+03   2.3204207e+03   2.3222375e+03
2.4561453e+03   2.4641202e+03   2.4638616e+03   2.4636031e+03   2.4633445e+03   2.4630859e+03   2.4628274e+03   2.4625688e+03   2.4623102e+03   2.4620516e+03   2.4617930e+03   2.4615345e+03   2.4612759e+03   2.4610173e+03   2.4607587e+03   2.4605002e+03   2.4602416e+03   2.4561044e+03   2.4523187e+03   2.4485330e+03   2.4455961e+03   2.4426592e+03   2.4389385e+03   2.4352177e+03   2.4346386e+03   2.4340595e+03   2.4327072e+03   2.4313549e+03   2.4297253e+03   2.4280957e+03   2.4265134e+03   2.4249310e+03   2.4232520e+03   2.4215730e+03   2.4205838e+03   2.4195946e+03   2.4197893e+03   2.4199840e+03   2.4213396e+03   2.4226952e+03   2.4248776e+03   2.4270601e+03   2.4284253e+03   2.4297906e+03   2.4293441e+03   2.4288978e+03   2.4274577e+03   2.4260176e+03   2.4223219e+03   2.4186261e+03   2.4162586e+03   2.4138911e+03   2.4122790e+03   2.4106669e+03   2.4089837e+03   2.4073005e+03   2.4056768e+03   2.4040530e+03   2.4022072e+03   2.4003614e+03   2.3967291e+03   2.3930968e+03   2.3906485e+03   2.3882002e+03   2.3862932e+03   2.3843861e+03   2.3824649e+03   2.3805437e+03   2.3798719e+03   2.3792001e+03   2.3766661e+03   2.3741320e+03   2.3721800e+03   2.3702279e+03   2.3691706e+03   2.3681132e+03   2.3652880e+03   2.3624628e+03   2.3580020e+03   2.3535412e+03   2.3489366e+03   2.3443322e+03   2.3402513e+03   2.3361704e+03   2.3348712e+03   2.3335719e+03   2.3328544e+03   2.3321369e+03   2.3337541e+03   2.3353713e+03   2.3380533e+03   2.3407353e+03
2.4712774e+03   2.4833458e+03   2.4828426e+03   2.4825210e+03   2.4822556e+03   2.4820067e+03   2.4817591e+03   2.4815113e+03   2.4812635e+03   2.4810157e+03   2.4807678e+03   2.4805205e+03   2.4802745e+03   2.4800021e+03   2.4795332e+03   2.4785773e+03   2.4785505e+03   2.4761237e+03   2.4724206e+03   2.4716237e+03   2.4685407e+03   2.4654577e+03   2.4612999e+03   2.4571421e+03   2.4563974e+03   2.4556527e+03   2.4542990e+03   2.4529453e+03   2.4516438e+03   2.4503424e+03   2.4487481e+03   2.4471538e+03   2.4452981e+03   2.4434424e+03   2.4426934e+03   2.4419444e+03   2.4426075e+03   2.4432707e+03   2.4448069e+03   2.4463431e+03   2.4485700e+03   2.4507968e+03   2.4519864e+03   2.4531759e+03   2.4529778e+03   2.4527796e+03   2.4514702e+03   2.4501609e+03   2.4454057e+03   2.4406505e+03   2.4377847e+03   2.4349189e+03   2.4330829e+03   2.4312469e+03   2.4293104e+03   2.4273739e+03   2.4256327e+03   2.4238914e+03   2.4219761e+03   2.4200609e+03   2.4160603e+03   2.4120598e+03   2.4094446e+03   2.4068295e+03   2.4048594e+03   2.4028893e+03   2.4008858e+03   2.3988824e+03   2.3982736e+03   2.3976648e+03   2.3953265e+03   2.3929883e+03   2.3911698e+03   2.3893513e+03   2.3881767e+03   2.3870021e+03   2.3840453e+03   2.3810885e+03   2.3770828e+03   2.3730771e+03   2.3683698e+03   2.3636625e+03   2.3594439e+03   2.3552254e+03   2.3535853e+03   2.3519451e+03   2.3508621e+03   2.3497791e+03   2.3509590e+03   2.3521388e+03   2.3556860e+03   2.3592332e+03
2.4864096e+03   2.5020717e+03   2.5012352e+03   2.5009282e+03   2.5006841e+03   2.5004483e+03   2.5002119e+03   2.4999751e+03   2.4997382e+03   2.4995013e+03   2.4992644e+03   2.4990282e+03   2.4987961e+03   2.4985409e+03   2.4980333e+03   2.4969147e+03   2.4966595e+03   2.4946189e+03   2.4919658e+03   2.4943344e+03   2.4910877e+03   2.4878410e+03   2.4829537e+03   2.4780664e+03   2.4771223e+03   2.4761783e+03   2.4748422e+03   2.4735060e+03   2.4723977e+03   2.4712894e+03   2.4700534e+03   2.4688175e+03   2.4676089e+03   2.4664002e+03   2.4661285e+03   2.4658568e+03   2.4666459e+03   2.4674349e+03   2.4690984e+03   2.4707619e+03   2.4727373e+03   2.4747128e+03   2.4757769e+03   2.4768410e+03   2.4765207e+03   2.4762004e+03   2.4745601e+03   2.4729197e+03   2.4671525e+03   2.4613853e+03   2.4576534e+03   2.4539216e+03   2.4516747e+03   2.4494279e+03   2.4472703e+03   2.4451128e+03   2.4433140e+03   2.4415152e+03   2.4395625e+03   2.4376098e+03   2.4333364e+03   2.4290630e+03   2.4263361e+03   2.4236092e+03   2.4215929e+03   2.4195766e+03   2.4174879e+03   2.4153992e+03   2.4148026e+03   2.4142061e+03   2.4119924e+03   2.4097787e+03   2.4080693e+03   2.4063600e+03   2.4051063e+03   2.4038527e+03   2.4008034e+03   2.3977542e+03   2.3949863e+03   2.3922184e+03   2.3874033e+03   2.3825882e+03   2.3782287e+03   2.3738691e+03   2.3718492e+03   2.3698293e+03   2.3683222e+03   2.3668151e+03   2.3673210e+03   2.3678269e+03   2.3701016e+03   2.3723764e+03
2.5015417e+03   2.5201424e+03   2.5189315e+03   2.5186854e+03   2.5184792e+03   2.5182575e+03   2.5180322e+03   2.5178065e+03   2.5175809e+03   2.5173553e+03   2.5171295e+03   2.5169039e+03   2.5166827e+03   2.5164575e+03   2.5160483e+03   2.5150655e+03   2.5143430e+03   2.5120483e+03   2.5106978e+03   2.5170451e+03   2.5136348e+03   2.5102244e+03   2.5046075e+03   2.4989906e+03   2.4978472e+03   2.4967039e+03   2.4953854e+03   2.4940668e+03   2.4931516e+03   2.4922363e+03   2.4913588e+03   2.4904812e+03   2.4899196e+03   2.4893581e+03   2.4895637e+03   2.4897692e+03   2.4906842e+03   2.4915992e+03   2.4933899e+03   2.4951807e+03   2.4969047e+03   2.4986287e+03   2.4995675e+03   2.5005062e+03   2.5000637e+03   2.4996213e+03   2.4976499e+03   2.4956785e+03   2.4888992e+03   2.4821200e+03   2.4775221e+03   2.4729242e+03   2.4702665e+03   2.4676088e+03   2.4652302e+03   2.4628516e+03   2.4609953e+03   2.4591390e+03   2.4571488e+03   2.4551586e+03   2.4506124e+03   2.4460661e+03   2.4432275e+03   2.4403889e+03   2.4383265e+03   2.4362640e+03   2.4340900e+03   2.4319159e+03   2.4313317e+03   2.4307475e+03   2.4286583e+03   2.4265692e+03   2.4249689e+03   2.4233686e+03   2.4220359e+03   2.4207033e+03   2.4175616e+03   2.4144199e+03   2.4128898e+03   2.4113597e+03   2.4064368e+03   2.4015139e+03   2.3970134e+03   2.3925128e+03   2.3901132e+03   2.3877135e+03   2.3857823e+03   2.3838511e+03   2.3836830e+03   2.3835149e+03   2.3845172e+03   2.3855196e+03
2.5166739e+03   2.5374022e+03   2.5358463e+03   2.5356984e+03   2.5355331e+03   2.5353248e+03   2.5351103e+03   2.5348957e+03   2.5346813e+03   2.5344669e+03   2.5342524e+03   2.5340370e+03   2.5338237e+03   2.5336310e+03   2.5333916e+03   2.5326837e+03   2.5314492e+03   2.5286436e+03   2.5282783e+03   2.5367073e+03   2.5333476e+03   2.5299878e+03   2.5245792e+03   2.5191707e+03   2.5180331e+03   2.5168956e+03   2.5154505e+03   2.5140054e+03   2.5129621e+03   2.5119189e+03   2.5113110e+03   2.5107031e+03   2.5107189e+03   2.5107348e+03   2.5117166e+03   2.5126984e+03   2.5141302e+03   2.5155620e+03   2.5172620e+03   2.5189620e+03   2.5206910e+03   2.5224201e+03   2.5230111e+03   2.5236021e+03   2.5227605e+03   2.5219190e+03   2.5172113e+03   2.5125037e+03   2.5061609e+03   2.4998182e+03   2.4946614e+03   2.4895047e+03   2.4863943e+03   2.4832840e+03   2.4807818e+03   2.4782796e+03   2.4764162e+03   2.4745529e+03   2.4725600e+03   2.4705671e+03   2.4659596e+03   2.4613520e+03   2.4584762e+03   2.4556004e+03   2.4535133e+03   2.4514262e+03   2.4491815e+03   2.4469369e+03   2.4462154e+03   2.4454941e+03   2.4434312e+03   2.4413683e+03   2.4398289e+03   2.4382895e+03   2.4369323e+03   2.4355752e+03   2.4322766e+03   2.4289779e+03   2.4284894e+03   2.4280009e+03   2.4229584e+03   2.4179160e+03   2.4132750e+03   2.4086341e+03   2.4059951e+03   2.4033561e+03   2.4011926e+03   2.3990292e+03   2.3984513e+03   2.3978733e+03   2.3982680e+03   2.3986628e+03
2.5318060e+03   2.5536940e+03   2.5519871e+03   2.5519176e+03   2.5517819e+03   2.5515853e+03   2.5513809e+03   2.5511767e+03   2.5509728e+03   2.5507689e+03   2.5505649e+03   2.5503591e+03   2.5501522e+03   2.5499879e+03   2.5499279e+03   2.5495352e+03   2.5478772e+03   2.5445279e+03   2.5445784e+03   2.5563696e+03   2.5530604e+03   2.5497512e+03   2.5445509e+03   2.5393507e+03   2.5382189e+03   2.5370872e+03   2.5355156e+03   2.5339439e+03   2.5327727e+03   2.5316015e+03   2.5312632e+03   2.5309250e+03   2.5315183e+03   2.5321115e+03   2.5338695e+03   2.5356275e+03   2.5375762e+03   2.5395249e+03   2.5411341e+03   2.5427433e+03   2.5444774e+03   2.5462114e+03   2.5464547e+03   2.5466980e+03   2.5454573e+03   2.5442167e+03   2.5367728e+03   2.5293289e+03   2.5234226e+03   2.5175163e+03   2.5118007e+03   2.5060852e+03   2.5025221e+03   2.4989591e+03   2.4963333e+03   2.4937076e+03   2.4918372e+03   2.4899667e+03   2.4879712e+03   2.4859756e+03   2.4813068e+03   2.4766379e+03   2.4737249e+03   2.4708120e+03   2.4687001e+03   2.4665883e+03   2.4642730e+03   2.4619578e+03   2.4610992e+03   2.4602406e+03   2.4582040e+03   2.4561674e+03   2.4546889e+03   2.4532103e+03   2.4518287e+03   2.4504471e+03   2.4469915e+03   2.4435359e+03   2.4440890e+03   2.4446421e+03   2.4394801e+03   2.4343180e+03   2.4295367e+03   2.4247554e+03   2.4218771e+03   2.4189987e+03   2.4166030e+03   2.4142073e+03   2.4132195e+03   2.4122317e+03   2.4120188e+03   2.4118060e+03
2.5469382e+03   2.5690207e+03   2.5673952e+03   2.5673402e+03   2.5672161e+03   2.5670290e+03   2.5668337e+03   2.5666385e+03   2.5664436e+03   2.5662487e+03   2.5660539e+03   2.5658567e+03   2.5656558e+03   2.5655126e+03   2.5656006e+03   2.5655042e+03   2.5635726e+03   2.5597831e+03   2.5597669e+03   2.5705093e+03   2.5670982e+03   2.5636871e+03   2.5584077e+03   2.5531283e+03   2.5521172e+03   2.5511060e+03   2.5495442e+03   2.5479823e+03   2.5465890e+03   2.5451956e+03   2.5448873e+03   2.5445790e+03   2.5451369e+03   2.5456948e+03   2.5472480e+03   2.5488012e+03   2.5506506e+03   2.5525000e+03   2.5541354e+03   2.5557708e+03   2.5575929e+03   2.5594151e+03   2.5621253e+03   2.5648355e+03   2.5651258e+03   2.5654161e+03   2.5569875e+03   2.5485590e+03   2.5412152e+03   2.5338714e+03   2.5270636e+03   2.5202558e+03   2.5163399e+03   2.5124241e+03   2.5097894e+03   2.5071546e+03   2.5052965e+03   2.5034384e+03   2.5014569e+03   2.4994754e+03   2.4950353e+03   2.4905953e+03   2.4877373e+03   2.4848792e+03   2.4827495e+03   2.4806197e+03   2.4782433e+03   2.4758669e+03   2.4747733e+03   2.4736797e+03   2.4715883e+03   2.4694970e+03   2.4679198e+03   2.4663427e+03   2.4649738e+03   2.4636048e+03   2.4598833e+03   2.4561617e+03   2.4562124e+03   2.4562631e+03   2.4510020e+03   2.4457410e+03   2.4408454e+03   2.4359497e+03   2.4329435e+03   2.4299374e+03   2.4273992e+03   2.4248610e+03   2.4235815e+03   2.4223020e+03   2.4209483e+03   2.4195945e+03
2.5620703e+03   2.5835749e+03   2.5820832e+03   2.5820113e+03   2.5818856e+03   2.5817055e+03   2.5815179e+03   2.5813302e+03   2.5811426e+03   2.5809551e+03   2.5807676e+03   2.5805780e+03   2.5803833e+03   2.5802533e+03   2.5804402e+03   2.5805880e+03   2.5785293e+03   2.5744400e+03   2.5742267e+03   2.5846489e+03   2.5811360e+03   2.5776231e+03   2.5722645e+03   2.5669060e+03   2.5660154e+03   2.5651249e+03   2.5635728e+03   2.5620207e+03   2.5604052e+03   2.5587897e+03   2.5585113e+03   2.5582330e+03   2.5587555e+03   2.5592781e+03   2.5606265e+03   2.5619749e+03   2.5637250e+03   2.5654751e+03   2.5671367e+03   2.5687982e+03   2.5707085e+03   2.5726187e+03   2.5777959e+03   2.5829731e+03   2.5847943e+03   2.5866155e+03   2.5772023e+03   2.5677891e+03   2.5590078e+03   2.5502266e+03   2.5423265e+03   2.5344263e+03   2.5301577e+03   2.5258891e+03   2.5232454e+03   2.5206016e+03   2.5187559e+03   2.5169101e+03   2.5149426e+03   2.5129752e+03   2.5087639e+03   2.5045526e+03   2.5017495e+03   2.4989465e+03   2.4967989e+03   2.4946512e+03   2.4922136e+03   2.4897760e+03   2.4884474e+03   2.4871188e+03   2.4849727e+03   2.4828266e+03   2.4811508e+03   2.4794750e+03   2.4781188e+03   2.4767626e+03   2.4727751e+03   2.4687875e+03   2.4683358e+03   2.4678841e+03   2.4625240e+03   2.4571639e+03   2.4521540e+03   2.4471441e+03   2.4440100e+03   2.4408760e+03   2.4381953e+03   2.4355147e+03   2.4339435e+03   2.4323723e+03   2.4298777e+03   2.4273831e+03
2.5772025e+03   2.5974633e+03   2.5961161e+03   2.5960379e+03   2.5959044e+03   2.5957290e+03   2.5955476e+03   2.5953657e+03   2.5951839e+03   2.5950021e+03   2.5948203e+03   2.5946369e+03   2.5944487e+03   2.5943252e+03   2.5945610e+03   2.5948836e+03   2.5928032e+03   2.5885375e+03   2.5880800e+03   2.5964588e+03   2.5928120e+03   2.5891650e+03   2.5836817e+03   2.5781983e+03   2.5773244e+03   2.5764504e+03   2.5748607e+03   2.5732708e+03   2.5714296e+03   2.5695883e+03   2.5691013e+03   2.5686143e+03   2.5689059e+03   2.5691973e+03   2.5701802e+03   2.5711631e+03   2.5726832e+03   2.5742032e+03   2.5759295e+03   2.5776557e+03   2.5796892e+03   2.5817226e+03   2.5867188e+03   2.5917149e+03   2.5946289e+03   2.5975428e+03   2.5893759e+03   2.5812090e+03   2.5718943e+03   2.5625795e+03   2.5546780e+03   2.5467766e+03   2.5423649e+03   2.5379532e+03   2.5352945e+03   2.5326358e+03   2.5307675e+03   2.5288992e+03   2.5269224e+03   2.5249456e+03   2.5212721e+03   2.5175985e+03   2.5149281e+03   2.5122578e+03   2.5100765e+03   2.5078951e+03   2.5054117e+03   2.5029283e+03   2.5013748e+03   2.4998212e+03   2.4975485e+03   2.4952757e+03   2.4932154e+03   2.4911552e+03   2.4898133e+03   2.4884713e+03   2.4842254e+03   2.4799794e+03   2.4787673e+03   2.4775553e+03   2.4721119e+03   2.4666684e+03   2.4615562e+03   2.4564439e+03   2.4532195e+03   2.4499952e+03   2.4472053e+03   2.4444154e+03   2.4426679e+03   2.4409204e+03   2.4380460e+03   2.4351717e+03
2.5923346e+03   2.6108334e+03   2.6096714e+03   2.6095884e+03   2.6094442e+03   2.6092714e+03   2.6090944e+03   2.6089168e+03   2.6087391e+03   2.6085614e+03   2.6083838e+03   2.6082051e+03   2.6080232e+03   2.6079012e+03   2.6081438e+03   2.6085638e+03   2.6065194e+03   2.6021799e+03   2.6015163e+03   2.6082688e+03   2.6044879e+03   2.6007070e+03   2.5950988e+03   2.5894906e+03   2.5886333e+03   2.5877760e+03   2.5861485e+03   2.5845210e+03   2.5824540e+03   2.5803870e+03   2.5796914e+03   2.5789957e+03   2.5790561e+03   2.5791166e+03   2.5797339e+03   2.5803513e+03   2.5816413e+03   2.5829313e+03   2.5847222e+03   2.5865132e+03   2.5886699e+03   2.5908265e+03   2.5956416e+03   2.6004567e+03   2.6044634e+03   2.6084701e+03   2.6015495e+03   2.5946289e+03   2.5847807e+03   2.5749325e+03   2.5670296e+03   2.5591268e+03   2.5545720e+03   2.5500173e+03   2.5473436e+03   2.5446700e+03   2.5427792e+03   2.5408883e+03   2.5389021e+03   2.5369160e+03   2.5337802e+03   2.5306444e+03   2.5281067e+03   2.5255691e+03   2.5233540e+03   2.5211390e+03   2.5186098e+03   2.5160806e+03   2.5143021e+03   2.5125237e+03   2.5101243e+03   2.5077249e+03   2.5052801e+03   2.5028353e+03   2.5015077e+03   2.5001801e+03   2.4956757e+03   2.4911712e+03   2.4891989e+03   2.4872265e+03   2.4816997e+03   2.4761729e+03   2.4709583e+03   2.4657437e+03   2.4624290e+03   2.4591144e+03   2.4562152e+03   2.4533160e+03   2.4513922e+03   2.4494685e+03   2.4462144e+03   2.4429602e+03
2.6074668e+03   2.6238978e+03   2.6229852e+03   2.6228743e+03   2.6227162e+03   2.6225434e+03   2.6223687e+03   2.6221932e+03   2.6220176e+03   2.6218419e+03   2.6216663e+03   2.6214903e+03   2.6213132e+03   2.6211890e+03   2.6214058e+03   2.6218446e+03   2.6198610e+03   2.6155533e+03   2.6146991e+03   2.6206600e+03   2.6166757e+03   2.6126915e+03   2.6067692e+03   2.6008468e+03   2.5999795e+03   2.5991121e+03   2.5974858e+03   2.5958596e+03   2.5937721e+03   2.5916847e+03   2.5909452e+03   2.5902058e+03   2.5901597e+03   2.5901136e+03   2.5902300e+03   2.5903464e+03   2.5912775e+03   2.5922087e+03   2.5940829e+03   2.5959572e+03   2.5981881e+03   2.6004190e+03   2.6046042e+03   2.6087893e+03   2.6124542e+03   2.6161191e+03   2.6087896e+03   2.6014601e+03   2.5933684e+03   2.5852768e+03   2.5780194e+03   2.5707621e+03   2.5664098e+03   2.5620575e+03   2.5593627e+03   2.5566678e+03   2.5547046e+03   2.5527414e+03   2.5507467e+03   2.5487519e+03   2.5459746e+03   2.5431973e+03   2.5407781e+03   2.5383590e+03   2.5360959e+03   2.5338329e+03   2.5312873e+03   2.5287418e+03   2.5268283e+03   2.5249149e+03   2.5223365e+03   2.5197582e+03   2.5170243e+03   2.5142905e+03   2.5129450e+03   2.5115994e+03   2.5068665e+03   2.5021335e+03   2.4989251e+03   2.4957167e+03   2.4901160e+03   2.4845154e+03   2.4792083e+03   2.4739011e+03   2.4705238e+03   2.4671464e+03   2.4641583e+03   2.4611703e+03   2.4591335e+03   2.4570966e+03   2.4539227e+03   2.4507488e+03
2.6225989e+03   2.6369093e+03   2.6362916e+03   2.6361239e+03   2.6359455e+03   2.6357693e+03   2.6355934e+03   2.6354167e+03   2.6352398e+03   2.6350629e+03   2.6348860e+03   2.6347093e+03   2.6345339e+03   2.6344039e+03   2.6345705e+03   2.6349539e+03   2.6330471e+03   2.6289220e+03   2.6277485e+03   2.6330512e+03   2.6288636e+03   2.6246759e+03   2.6184395e+03   2.6122031e+03   2.6113256e+03   2.6104482e+03   2.6088232e+03   2.6071981e+03   2.6050903e+03   2.6029824e+03   2.6021991e+03   2.6014159e+03   2.6012632e+03   2.6011105e+03   2.6007260e+03   2.6003415e+03   2.6009137e+03   2.6014860e+03   2.6034436e+03   2.6054012e+03   2.6077063e+03   2.6100115e+03   2.6135667e+03   2.6171219e+03   2.6204451e+03   2.6237682e+03   2.6160297e+03   2.6082913e+03   2.6019562e+03   2.5956211e+03   2.5890093e+03   2.5823974e+03   2.5782476e+03   2.5740978e+03   2.5713817e+03   2.5686655e+03   2.5666300e+03   2.5645944e+03   2.5625912e+03   2.5605879e+03   2.5581690e+03   2.5557501e+03   2.5534495e+03   2.5511489e+03   2.5488378e+03   2.5465268e+03   2.5439649e+03   2.5414029e+03   2.5393545e+03   2.5373061e+03   2.5345488e+03   2.5317915e+03   2.5287686e+03   2.5257457e+03   2.5243822e+03   2.5230188e+03   2.5180573e+03   2.5130958e+03   2.5086514e+03   2.5042069e+03   2.4985324e+03   2.4928578e+03   2.4874582e+03   2.4820586e+03   2.4786185e+03   2.4751784e+03   2.4721015e+03   2.4690246e+03   2.4668747e+03   2.4647248e+03   2.4616311e+03   2.4585374e+03
2.6377311e+03   2.6500624e+03   2.6497951e+03   2.6495395e+03   2.6493304e+03   2.6491458e+03   2.6489638e+03   2.6487811e+03   2.6485982e+03   2.6484153e+03   2.6482323e+03   2.6480501e+03   2.6478715e+03   2.6477319e+03   2.6478302e+03   2.6481012e+03   2.6462928e+03   2.6425107e+03   2.6407780e+03   2.6417337e+03   2.6375031e+03   2.6332725e+03   2.6267835e+03   2.6202945e+03   2.6192821e+03   2.6182697e+03   2.6166849e+03   2.6151002e+03   2.6131933e+03   2.6112864e+03   2.6104209e+03   2.6095554e+03   2.6090281e+03   2.6085008e+03   2.6078598e+03   2.6072188e+03   2.6076495e+03   2.6080801e+03   2.6099523e+03   2.6118245e+03   2.6141692e+03   2.6165140e+03   2.6210292e+03   2.6255445e+03   2.6286630e+03   2.6317815e+03   2.6242699e+03   2.6167582e+03   2.6112247e+03   2.6056911e+03   2.5999707e+03   2.5942503e+03   2.5903021e+03   2.5863540e+03   2.5836378e+03   2.5809217e+03   2.5788017e+03   2.5766818e+03   2.5746399e+03   2.5725979e+03   2.5703494e+03   2.5681010e+03   2.5658429e+03   2.5635847e+03   2.5612362e+03   2.5588876e+03   2.5563238e+03   2.5537599e+03   2.5515775e+03   2.5493952e+03   2.5465026e+03   2.5436100e+03   2.5404311e+03   2.5372523e+03   2.5358480e+03   2.5344437e+03   2.5293012e+03   2.5241588e+03   2.5181241e+03   2.5120894e+03   2.5063460e+03   2.5006026e+03   2.4951170e+03   2.4896313e+03   2.4861414e+03   2.4826515e+03   2.4794969e+03   2.4763424e+03   2.4741054e+03   2.4718684e+03   2.4690972e+03   2.4663260e+03
2.6528632e+03   2.6634999e+03   2.6636428e+03   2.6632626e+03   2.6630087e+03   2.6628093e+03   2.6626155e+03   2.6624210e+03   2.6622264e+03   2.6620316e+03   2.6618368e+03   2.6616431e+03   2.6614556e+03   2.6613015e+03   2.6613214e+03   2.6614524e+03   2.6597631e+03   2.6563871e+03   2.6538798e+03   2.6504161e+03   2.6461426e+03   2.6418691e+03   2.6351275e+03   2.6283859e+03   2.6272386e+03   2.6260913e+03   2.6245467e+03   2.6230022e+03   2.6212963e+03   2.6195904e+03   2.6186426e+03   2.6176948e+03   2.6167930e+03   2.6158912e+03   2.6149937e+03   2.6140961e+03   2.6143852e+03   2.6146743e+03   2.6164611e+03   2.6182479e+03   2.6206321e+03   2.6230164e+03   2.6284917e+03   2.6339670e+03   2.6368809e+03   2.6397949e+03   2.6325100e+03   2.6252252e+03   2.6204932e+03   2.6157611e+03   2.6109322e+03   2.6061032e+03   2.6023567e+03   2.5986102e+03   2.5958940e+03   2.5931778e+03   2.5909735e+03   2.5887693e+03   2.5866886e+03   2.5846079e+03   2.5825299e+03   2.5804519e+03   2.5782362e+03   2.5760206e+03   2.5736345e+03   2.5712484e+03   2.5686826e+03   2.5661169e+03   2.5638006e+03   2.5614843e+03   2.5584563e+03   2.5554284e+03   2.5520936e+03   2.5487589e+03   2.5473137e+03   2.5458685e+03   2.5405451e+03   2.5352217e+03   2.5275968e+03   2.5199719e+03   2.5141596e+03   2.5083473e+03   2.5027757e+03   2.4972041e+03   2.4936644e+03   2.4901246e+03   2.4868924e+03   2.4836602e+03   2.4813361e+03   2.4790120e+03   2.4765633e+03   2.4741145e+03
2.6679954e+03   2.6772939e+03   2.6778848e+03   2.6773525e+03   2.6770414e+03   2.6768210e+03   2.6766094e+03   2.6763971e+03   2.6761846e+03   2.6759720e+03   2.6757594e+03   2.6755482e+03   2.6753452e+03   2.6751711e+03   2.6751134e+03   2.6751122e+03   2.6735421e+03   2.6704755e+03   2.6670481e+03   2.6590985e+03   2.6547821e+03   2.6504657e+03   2.6434715e+03   2.6364774e+03   2.6351951e+03   2.6339128e+03   2.6324086e+03   2.6309043e+03   2.6302985e+03   2.6296926e+03   2.6292188e+03   2.6287449e+03   2.6279297e+03   2.6271146e+03   2.6263015e+03   2.6254885e+03   2.6252688e+03   2.6250491e+03   2.6264889e+03   2.6279286e+03   2.6314883e+03   2.6350480e+03   2.6390606e+03   2.6430730e+03   2.6447121e+03   2.6463512e+03   2.6401591e+03   2.6339670e+03   2.6301505e+03   2.6263340e+03   2.6221803e+03   2.6180266e+03   2.6145505e+03   2.6110743e+03   2.6083698e+03   2.6056654e+03   2.6033823e+03   2.6010992e+03   2.5989515e+03   2.5968038e+03   2.5947260e+03   2.5926483e+03   2.5904212e+03   2.5881941e+03   2.5857761e+03   2.5833582e+03   2.5807848e+03   2.5782114e+03   2.5758160e+03   2.5734206e+03   2.5703215e+03   2.5672224e+03   2.5638045e+03   2.5603866e+03   2.5588738e+03   2.5573610e+03   2.5518723e+03   2.5463837e+03   2.5371762e+03   2.5279686e+03   2.5220989e+03   2.5162292e+03   2.5105552e+03   2.5048812e+03   2.5013054e+03   2.4977297e+03   2.4944042e+03   2.4910787e+03   2.4886902e+03   2.4863017e+03   2.4841024e+03   2.4819030e+03
2.6831275e+03   2.6914415e+03   2.6924553e+03   2.6917868e+03   2.6914161e+03   2.6911696e+03   2.6909348e+03   2.6906993e+03   2.6904636e+03   2.6902278e+03   2.6899919e+03   2.6897577e+03   2.6895332e+03   2.6893340e+03   2.6892112e+03   2.6891149e+03   2.6876259e+03   2.6846088e+03   2.6802223e+03   2.6677810e+03   2.6634216e+03   2.6590622e+03   2.6518155e+03   2.6445688e+03   2.6431516e+03   2.6417344e+03   2.6402703e+03   2.6388063e+03   2.6393006e+03   2.6397949e+03   2.6397949e+03   2.6397949e+03   2.6390664e+03   2.6383379e+03   2.6376094e+03   2.6368809e+03   2.6361525e+03   2.6354240e+03   2.6365167e+03   2.6376094e+03   2.6423445e+03   2.6470797e+03   2.6496294e+03   2.6521791e+03   2.6525433e+03   2.6529076e+03   2.6478082e+03   2.6427088e+03   2.6398078e+03   2.6369068e+03   2.6334284e+03   2.6299500e+03   2.6267442e+03   2.6235384e+03   2.6208457e+03   2.6181529e+03   2.6157910e+03   2.6134291e+03   2.6112144e+03   2.6089997e+03   2.6069221e+03   2.6048446e+03   2.6026060e+03   2.6003675e+03   2.5979177e+03   2.5954680e+03   2.5928869e+03   2.5903058e+03   2.5878314e+03   2.5853569e+03   2.5821867e+03   2.5790164e+03   2.5755153e+03   2.5720143e+03   2.5704338e+03   2.5688534e+03   2.5631996e+03   2.5575457e+03   2.5467555e+03   2.5359654e+03   2.5300382e+03   2.5241110e+03   2.5183347e+03   2.5125584e+03   2.5089465e+03   2.5053347e+03   2.5019159e+03   2.4984972e+03   2.4960442e+03   2.4935913e+03   2.4916415e+03   2.4896916e+03
2.6982597e+03   2.7059536e+03   2.7072161e+03   2.7064801e+03   2.7060638e+03   2.7057878e+03   2.7055256e+03   2.7052627e+03   2.7049995e+03   2.7047363e+03   2.7044731e+03   2.7042117e+03   2.7039605e+03   2.7037327e+03   2.7035669e+03   2.7034265e+03   2.7019451e+03   2.6986584e+03   2.6936448e+03   2.6838555e+03   2.6792791e+03   2.6747028e+03   2.6675093e+03   2.6603157e+03   2.6587177e+03   2.6571197e+03   2.6557564e+03   2.6543931e+03   2.6543400e+03   2.6542870e+03   2.6540067e+03   2.6537263e+03   2.6521235e+03   2.6505206e+03   2.6490132e+03   2.6475058e+03   2.6465953e+03   2.6456847e+03   2.6466594e+03   2.6476340e+03   2.6513040e+03   2.6549739e+03   2.6574488e+03   2.6599236e+03   2.6598759e+03   2.6598282e+03   2.6567321e+03   2.6536361e+03   2.6507284e+03   2.6478207e+03   2.6448372e+03   2.6418537e+03   2.6388773e+03   2.6359008e+03   2.6332541e+03   2.6306073e+03   2.6281970e+03   2.6257867e+03   2.6234902e+03   2.6211937e+03   2.6190386e+03   2.6168835e+03   2.6145985e+03   2.6123135e+03   2.6098309e+03   2.6073484e+03   2.6047474e+03   2.6021465e+03   2.5996321e+03   2.5971176e+03   2.5939248e+03   2.5907319e+03   2.5872289e+03   2.5837260e+03   2.5819944e+03   2.5802628e+03   2.5745081e+03   2.5687533e+03   2.5589344e+03   2.5491156e+03   2.5431334e+03   2.5371511e+03   2.5313206e+03   2.5254902e+03   2.5218846e+03   2.5182791e+03   2.5148314e+03   2.5113837e+03   2.5088794e+03   2.5063750e+03   2.5043615e+03   2.5023480e+03
2.7133918e+03   2.7207910e+03   2.7220158e+03   2.7213150e+03   2.7208815e+03   2.7205748e+03   2.7202819e+03   2.7199889e+03   2.7196957e+03   2.7194025e+03   2.7191094e+03   2.7188181e+03   2.7185364e+03   2.7182790e+03   2.7180960e+03   2.7179585e+03   2.7164034e+03   2.7126312e+03   2.7074022e+03   2.6999299e+03   2.6951367e+03   2.6903434e+03   2.6832031e+03   2.6760627e+03   2.6742838e+03   2.6725050e+03   2.6712424e+03   2.6699798e+03   2.6693795e+03   2.6687792e+03   2.6682185e+03   2.6676577e+03   2.6651805e+03   2.6627033e+03   2.6604169e+03   2.6581306e+03   2.6570381e+03   2.6559455e+03   2.6568021e+03   2.6576587e+03   2.6602634e+03   2.6628682e+03   2.6652682e+03   2.6676682e+03   2.6672085e+03   2.6667488e+03   2.6656560e+03   2.6645633e+03   2.6616489e+03   2.6587345e+03   2.6562459e+03   2.6537574e+03   2.6510104e+03   2.6482633e+03   2.6456624e+03   2.6430616e+03   2.6406029e+03   2.6381443e+03   2.6357661e+03   2.6333878e+03   2.6311551e+03   2.6289224e+03   2.6265909e+03   2.6242595e+03   2.6217441e+03   2.6192288e+03   2.6166080e+03   2.6139872e+03   2.6114327e+03   2.6088783e+03   2.6056628e+03   2.6024474e+03   2.5989425e+03   2.5954376e+03   2.5935549e+03   2.5916722e+03   2.5858166e+03   2.5799609e+03   2.5711134e+03   2.5622658e+03   2.5562285e+03   2.5501912e+03   2.5443066e+03   2.5384220e+03   2.5348227e+03   2.5312234e+03   2.5277468e+03   2.5242702e+03   2.5217144e+03   2.5191587e+03   2.5170815e+03   2.5150044e+03
2.7285240e+03   2.7359313e+03   2.7367255e+03   2.7361640e+03   2.7357461e+03   2.7354086e+03   2.7350830e+03   2.7347585e+03   2.7344341e+03   2.7341098e+03   2.7337856e+03   2.7334630e+03   2.7331487e+03   2.7328622e+03   2.7326843e+03   2.7325820e+03   2.7308927e+03   2.7265537e+03   2.7212882e+03   2.7153214e+03   2.7102930e+03   2.7052647e+03   2.6979516e+03   2.6906384e+03   2.6890790e+03   2.6875196e+03   2.6864082e+03   2.6852968e+03   2.6843758e+03   2.6834547e+03   2.6828834e+03   2.6823120e+03   2.6799487e+03   2.6775854e+03   2.6750357e+03   2.6724860e+03   2.6711569e+03   2.6698278e+03   2.6708640e+03   2.6719001e+03   2.6746136e+03   2.6773271e+03   2.6795666e+03   2.6818061e+03   2.6803261e+03   2.6788462e+03   2.6771684e+03   2.6754905e+03   2.6727986e+03   2.6701066e+03   2.6681640e+03   2.6662215e+03   2.6635491e+03   2.6608767e+03   2.6582743e+03   2.6556718e+03   2.6531748e+03   2.6506778e+03   2.6482443e+03   2.6458108e+03   2.6433110e+03   2.6408111e+03   2.6383839e+03   2.6359567e+03   2.6334052e+03   2.6308537e+03   2.6282050e+03   2.6255563e+03   2.6229902e+03   2.6204241e+03   2.6172235e+03   2.6140229e+03   2.6105188e+03   2.6070146e+03   2.6049566e+03   2.6028987e+03   2.5970408e+03   2.5911829e+03   2.5830638e+03   2.5749448e+03   2.5688864e+03   2.5628280e+03   2.5569242e+03   2.5510204e+03   2.5474507e+03   2.5438809e+03   2.5404072e+03   2.5369335e+03   2.5343849e+03   2.5318364e+03   2.5297486e+03   2.5276609e+03
2.7436561e+03   2.7511809e+03   2.7512730e+03   2.7509057e+03   2.7505245e+03   2.7501566e+03   2.7497973e+03   2.7494410e+03   2.7490853e+03   2.7487296e+03   2.7483742e+03   2.7480199e+03   2.7476719e+03   2.7473572e+03   2.7471970e+03   2.7471444e+03   2.7452962e+03   2.7403935e+03   2.7351645e+03   2.7307128e+03   2.7254494e+03   2.7201860e+03   2.7127001e+03   2.7052141e+03   2.7038742e+03   2.7025342e+03   2.7015740e+03   2.7006138e+03   2.6993720e+03   2.6981302e+03   2.6975482e+03   2.6969663e+03   2.6947169e+03   2.6924675e+03   2.6896544e+03   2.6868413e+03   2.6852757e+03   2.6837102e+03   2.6849259e+03   2.6861415e+03   2.6889637e+03   2.6917860e+03   2.6938650e+03   2.6959439e+03   2.6934438e+03   2.6909437e+03   2.6886807e+03   2.6864178e+03   2.6839483e+03   2.6814787e+03   2.6800821e+03   2.6786855e+03   2.6760878e+03   2.6734901e+03   2.6708861e+03   2.6682821e+03   2.6657467e+03   2.6632113e+03   2.6607225e+03   2.6582338e+03   2.6554668e+03   2.6526998e+03   2.6501768e+03   2.6476538e+03   2.6450662e+03   2.6424785e+03   2.6398020e+03   2.6371255e+03   2.6345477e+03   2.6319700e+03   2.6287842e+03   2.6255984e+03   2.6220950e+03   2.6185916e+03   2.6163584e+03   2.6141251e+03   2.6082649e+03   2.6024048e+03   2.5950143e+03   2.5876238e+03   2.5815443e+03   2.5754648e+03   2.5695419e+03   2.5636189e+03   2.5600786e+03   2.5565384e+03   2.5530676e+03   2.5495968e+03   2.5470554e+03   2.5445141e+03   2.5424157e+03   2.5403173e+03
2.7587883e+03   2.7662458e+03   2.7656188e+03   2.7654299e+03   2.7650843e+03   2.7646862e+03   2.7642931e+03   2.7639052e+03   2.7635185e+03   2.7631319e+03   2.7627455e+03   2.7623595e+03   2.7619773e+03   2.7616339e+03   2.7614905e+03   2.7614870e+03   2.7594917e+03   2.7540777e+03   2.7488479e+03   2.7448293e+03   2.7394676e+03   2.7341058e+03   2.7269211e+03   2.7197365e+03   2.7186119e+03   2.7174874e+03   2.7163314e+03   2.7151755e+03   2.7132579e+03   2.7113403e+03   2.7107281e+03   2.7101161e+03   2.7080224e+03   2.7059286e+03   2.7030154e+03   2.7001022e+03   2.6984807e+03   2.6968592e+03   2.6980881e+03   2.6993170e+03   2.7022144e+03   2.7051118e+03   2.7072892e+03   2.7094664e+03   2.7068780e+03   2.7042895e+03   2.7022742e+03   2.7002590e+03   2.6974023e+03   2.6945457e+03   2.6926471e+03   2.6907485e+03   2.6881907e+03   2.6856329e+03   2.6830306e+03   2.6804283e+03   2.6778730e+03   2.6753177e+03   2.6727772e+03   2.6702366e+03   2.6672700e+03   2.6643033e+03   2.6616797e+03   2.6590561e+03   2.6564351e+03   2.6538142e+03   2.6511076e+03   2.6484012e+03   2.6458217e+03   2.6432423e+03   2.6400706e+03   2.6368990e+03   2.6333810e+03   2.6298630e+03   2.6275023e+03   2.6251416e+03   2.6192924e+03   2.6134432e+03   2.6065701e+03   2.5996970e+03   2.5936405e+03   2.5875840e+03   2.5816882e+03   2.5757924e+03   2.5723111e+03   2.5688297e+03   2.5654100e+03   2.5619902e+03   2.5594218e+03   2.5568534e+03   2.5549136e+03   2.5529737e+03
2.7739204e+03   2.7808394e+03   2.7797385e+03   2.7796380e+03   2.7793040e+03   2.7788754e+03   2.7784490e+03   2.7780298e+03   2.7776126e+03   2.7771956e+03   2.7767785e+03   2.7763610e+03   2.7759442e+03   2.7755688e+03   2.7754282e+03   2.7754606e+03   2.7733585e+03   2.7675103e+03   2.7622221e+03   2.7589458e+03   2.7534857e+03   2.7480256e+03   2.7411422e+03   2.7342588e+03   2.7333497e+03   2.7324405e+03   2.7310889e+03   2.7297372e+03   2.7271438e+03   2.7245503e+03   2.7239081e+03   2.7232658e+03   2.7213278e+03   2.7193898e+03   2.7163765e+03   2.7133631e+03   2.7116857e+03   2.7100083e+03   2.7112504e+03   2.7124925e+03   2.7154651e+03   2.7184377e+03   2.7207133e+03   2.7229890e+03   2.7203122e+03   2.7176353e+03   2.7158677e+03   2.7141002e+03   2.7108565e+03   2.7076127e+03   2.7052121e+03   2.7028115e+03   2.7002936e+03   2.6977757e+03   2.6951751e+03   2.6925745e+03   2.6899993e+03   2.6874241e+03   2.6848318e+03   2.6822395e+03   2.6790732e+03   2.6759068e+03   2.6731826e+03   2.6704584e+03   2.6678041e+03   2.6651498e+03   2.6624133e+03   2.6596768e+03   2.6570957e+03   2.6545145e+03   2.6513571e+03   2.6481996e+03   2.6446670e+03   2.6411344e+03   2.6386462e+03   2.6361581e+03   2.6303199e+03   2.6244817e+03   2.6181259e+03   2.6117702e+03   2.6057367e+03   2.5997032e+03   2.5938346e+03   2.5879660e+03   2.5845435e+03   2.5811210e+03   2.5777523e+03   2.5743837e+03   2.5717882e+03   2.5691927e+03   2.5674114e+03   2.5656301e+03
2.7890526e+03   2.7948221e+03   2.7935857e+03   2.7934417e+03   2.7930833e+03   2.7926225e+03   2.7921635e+03   2.7917133e+03   2.7912658e+03   2.7908185e+03   2.7903709e+03   2.7899217e+03   2.7894698e+03   2.7890568e+03   2.7888946e+03   2.7889394e+03   2.7867871e+03   2.7806047e+03   2.7752326e+03   2.7725720e+03   2.7670459e+03   2.7615198e+03   2.7548343e+03   2.7481488e+03   2.7471109e+03   2.7460731e+03   2.7442920e+03   2.7425109e+03   2.7401962e+03   2.7378814e+03   2.7369747e+03   2.7360680e+03   2.7343872e+03   2.7327064e+03   2.7294944e+03   2.7262824e+03   2.7244677e+03   2.7226530e+03   2.7241909e+03   2.7257288e+03   2.7289037e+03   2.7320786e+03   2.7339633e+03   2.7358480e+03   2.7331046e+03   2.7303612e+03   2.7276943e+03   2.7250275e+03   2.7223680e+03   2.7197085e+03   2.7171371e+03   2.7145657e+03   2.7120245e+03   2.7094833e+03   2.7068730e+03   2.7042627e+03   2.7016687e+03   2.6990746e+03   2.6964392e+03   2.6938038e+03   2.6904715e+03   2.6871391e+03   2.6843376e+03   2.6815363e+03   2.6788470e+03   2.6761577e+03   2.6733907e+03   2.6706237e+03   2.6680465e+03   2.6654694e+03   2.6623106e+03   2.6591519e+03   2.6555974e+03   2.6520428e+03   2.6494908e+03   2.6469388e+03   2.6410884e+03   2.6352380e+03   2.6290649e+03   2.6228918e+03   2.6168504e+03   2.6108089e+03   2.6049548e+03   2.5991007e+03   2.5956498e+03   2.5921988e+03   2.5888342e+03   2.5854695e+03   2.5827789e+03   2.5800884e+03   2.5787007e+03   2.5773130e+03
2.8041847e+03   2.8082700e+03   2.8070413e+03   2.8067658e+03   2.8063494e+03   2.8058534e+03   2.8053620e+03   2.8048808e+03   2.8044027e+03   2.8039249e+03   2.8034465e+03   2.8029652e+03   2.8024777e+03   2.8020198e+03   2.8018061e+03   2.8018321e+03   2.7996883e+03   2.7932926e+03   2.7878504e+03   2.7853729e+03   2.7806061e+03   2.7750141e+03   2.7685264e+03   2.7620388e+03   2.7608722e+03   2.7597057e+03   2.7574952e+03   2.7552847e+03   2.7532486e+03   2.7512125e+03   2.7500413e+03   2.7488702e+03   2.7474466e+03   2.7460230e+03   2.7426124e+03   2.7392017e+03   2.7372497e+03   2.7352977e+03   2.7371314e+03   2.7389651e+03   2.7423423e+03   2.7457195e+03   2.7472132e+03   2.7487069e+03   2.7458969e+03   2.7430870e+03   2.7395209e+03   2.7359548e+03   2.7338795e+03   2.7318043e+03   2.7290621e+03   2.7263199e+03   2.7237553e+03   2.7211908e+03   2.7185709e+03   2.7159510e+03   2.7133380e+03   2.7107251e+03   2.7080467e+03   2.7053682e+03   2.7018697e+03   2.6983713e+03   2.6954927e+03   2.6926141e+03   2.6898898e+03   2.6871656e+03   2.6843681e+03   2.6815706e+03   2.6789974e+03   2.6764242e+03   2.6732641e+03   2.6701041e+03   2.6665277e+03   2.6629513e+03   2.6603354e+03   2.6577194e+03   2.6518569e+03   2.6459943e+03   2.6400039e+03   2.6340135e+03   2.6279641e+03   2.6219146e+03   2.6160750e+03   2.6102355e+03   2.6067561e+03   2.6032767e+03   2.5999160e+03   2.5965553e+03   2.5937697e+03   2.5909841e+03   2.5899900e+03   2.5889958e+03
2.8173852e+03   2.8211654e+03   2.8199841e+03   2.8195564e+03   2.8190595e+03   2.8185240e+03   2.8179999e+03   2.8174873e+03   2.8169780e+03   2.8164689e+03   2.8159588e+03   2.8154449e+03   2.8149207e+03   2.8144111e+03   2.8141160e+03   2.8140875e+03   2.8120011e+03   2.8055210e+03   2.8000907e+03   2.7978463e+03   2.7928518e+03   2.7872107e+03   2.7812109e+03   2.7752112e+03   2.7733778e+03   2.7715444e+03   2.7690147e+03   2.7664850e+03   2.7651375e+03   2.7637901e+03   2.7630070e+03   2.7622240e+03   2.7612341e+03   2.7600117e+03   2.7575262e+03   2.7554213e+03   2.7532087e+03   2.7523594e+03   2.7524908e+03   2.7556837e+03   2.7585703e+03   2.7590692e+03   2.7597217e+03   2.7603742e+03   2.7575209e+03   2.7546677e+03   2.7513212e+03   2.7479748e+03   2.7456692e+03   2.7433637e+03   2.7404872e+03   2.7376107e+03   2.7350073e+03   2.7324040e+03   2.7297599e+03   2.7271159e+03   2.7244797e+03   2.7218435e+03   2.7191282e+03   2.7164129e+03   2.7128047e+03   2.7091966e+03   2.7062642e+03   2.7033317e+03   2.7005739e+03   2.6978160e+03   2.6949887e+03   2.6921614e+03   2.6895854e+03   2.6870095e+03   2.6838353e+03   2.6806611e+03   2.6770628e+03   2.6734644e+03   2.6708348e+03   2.6682052e+03   2.6623054e+03   2.6564056e+03   2.6504974e+03   2.6445892e+03   2.6384910e+03   2.6323927e+03   2.6265098e+03   2.6206269e+03   2.6170529e+03   2.6134788e+03   2.6100528e+03   2.6066267e+03   2.6037120e+03   2.6007973e+03   2.5983270e+03   2.5958567e+03
2.8281856e+03   2.8335158e+03   2.8323535e+03   2.8317884e+03   2.8311993e+03   2.8306196e+03   2.8300621e+03   2.8295172e+03   2.8289756e+03   2.8284340e+03   2.8278911e+03   2.8273435e+03   2.8267817e+03   2.8262145e+03   2.8258131e+03   2.8256941e+03   2.8236973e+03   2.8172599e+03   2.8119560e+03   2.8100756e+03   2.8050975e+03   2.7994073e+03   2.7938954e+03   2.7883836e+03   2.7858834e+03   2.7833831e+03   2.7805341e+03   2.7776852e+03   2.7770264e+03   2.7763676e+03   2.7759727e+03   2.7755778e+03   2.7738879e+03   2.7737994e+03   2.7729220e+03   2.7726103e+03   2.7716532e+03   2.7711962e+03   2.7707225e+03   2.7716797e+03   2.7725597e+03   2.7724189e+03   2.7722302e+03   2.7720414e+03   2.7691449e+03   2.7662484e+03   2.7631215e+03   2.7599947e+03   2.7574590e+03   2.7549232e+03   2.7519124e+03   2.7489015e+03   2.7462593e+03   2.7436172e+03   2.7409490e+03   2.7382808e+03   2.7356213e+03   2.7329618e+03   2.7302096e+03   2.7274575e+03   2.7237398e+03   2.7200220e+03   2.7170356e+03   2.7140493e+03   2.7112578e+03   2.7084664e+03   2.7056092e+03   2.7027521e+03   2.7001734e+03   2.6975948e+03   2.6944065e+03   2.6912182e+03   2.6875979e+03   2.6839775e+03   2.6813342e+03   2.6786910e+03   2.6727540e+03   2.6668170e+03   2.6609910e+03   2.6551650e+03   2.6490179e+03   2.6428708e+03   2.6369446e+03   2.6310184e+03   2.6273497e+03   2.6236809e+03   2.6201896e+03   2.6166982e+03   2.6136543e+03   2.6106105e+03   2.6066640e+03   2.6027176e+03
2.8383859e+03   2.8453456e+03   2.8441395e+03   2.8434647e+03   2.8427790e+03   2.8421513e+03   2.8415592e+03   2.8409810e+03   2.8404058e+03   2.8398302e+03   2.8392530e+03   2.8386704e+03   2.8380697e+03   2.8374412e+03   2.8369166e+03   2.8366751e+03   2.8347818e+03   2.8285047e+03   2.8234294e+03   2.8218661e+03   2.8167939e+03   2.8110689e+03   2.8055248e+03   2.7999806e+03   2.7974484e+03   2.7949163e+03   2.7922303e+03   2.7895443e+03   2.7887164e+03   2.7878886e+03   2.7874210e+03   2.7869533e+03   2.7857192e+03   2.7854918e+03   2.7857028e+03   2.7856426e+03   2.7847827e+03   2.7845197e+03   2.7836859e+03   2.7841888e+03   2.7847613e+03   2.7834368e+03   2.7831344e+03   2.7828320e+03   2.7799660e+03   2.7770999e+03   2.7740109e+03   2.7709219e+03   2.7683808e+03   2.7658397e+03   2.7630122e+03   2.7601847e+03   2.7575028e+03   2.7548209e+03   2.7521232e+03   2.7494255e+03   2.7467300e+03   2.7440346e+03   2.7412870e+03   2.7385394e+03   2.7346639e+03   2.7307885e+03   2.7277819e+03   2.7247753e+03   2.7219426e+03   2.7191097e+03   2.7162280e+03   2.7133462e+03   2.7105704e+03   2.7077946e+03   2.7045871e+03   2.7013796e+03   2.6977428e+03   2.6941059e+03   2.6914771e+03   2.6888484e+03   2.6828510e+03   2.6768535e+03   2.6709643e+03   2.6650751e+03   2.6588302e+03   2.6525853e+03   2.6465536e+03   2.6405220e+03   2.6366683e+03   2.6328147e+03   2.6291269e+03   2.6254392e+03   2.6223277e+03   2.6192162e+03   2.6147144e+03   2.6102126e+03
2.8503863e+03   2.8566886e+03   2.8553725e+03   2.8546119e+03   2.8538285e+03   2.8531500e+03   2.8525225e+03   2.8519097e+03   2.8512993e+03   2.8506883e+03   2.8500751e+03   2.8494558e+03   2.8488149e+03   2.8481237e+03   2.8474682e+03   2.8470794e+03   2.8452871e+03   2.8392719e+03   2.8344921e+03   2.8333485e+03   2.8284902e+03   2.8227306e+03   2.8171541e+03   2.8115776e+03   2.8090136e+03   2.8064495e+03   2.8039264e+03   2.8014034e+03   2.8004065e+03   2.7994095e+03   2.7988692e+03   2.7983289e+03   2.7969069e+03   2.7965937e+03   2.7968498e+03   2.7966935e+03   2.7961904e+03   2.7961652e+03   2.7953751e+03   2.7958632e+03   2.7961236e+03   2.7944547e+03   2.7940387e+03   2.7936227e+03   2.7907871e+03   2.7879515e+03   2.7849003e+03   2.7818492e+03   2.7793027e+03   2.7767562e+03   2.7741120e+03   2.7714678e+03   2.7687463e+03   2.7660247e+03   2.7632974e+03   2.7605701e+03   2.7578387e+03   2.7551074e+03   2.7523643e+03   2.7496212e+03   2.7455881e+03   2.7415550e+03   2.7385282e+03   2.7355014e+03   2.7326273e+03   2.7297531e+03   2.7268467e+03   2.7239403e+03   2.7209674e+03   2.7179945e+03   2.7147678e+03   2.7115411e+03   2.7078877e+03   2.7042343e+03   2.7016200e+03   2.6990057e+03   2.6929479e+03   2.6868901e+03   2.6809376e+03   2.6749852e+03   2.6686425e+03   2.6622997e+03   2.6561626e+03   2.6500255e+03   2.6459870e+03   2.6419485e+03   2.6380643e+03   2.6341802e+03   2.6310011e+03   2.6278220e+03   2.6227648e+03   2.6177075e+03
2.8617029e+03   2.8675806e+03   2.8661117e+03   2.8652733e+03   2.8643915e+03   2.8636613e+03   2.8629977e+03   2.8623492e+03   2.8617021e+03   2.8610540e+03   2.8604032e+03   2.8597455e+03   2.8590629e+03   2.8583094e+03   2.8575240e+03   2.8569726e+03   2.8552666e+03   2.8495967e+03   2.8451252e+03   2.8444919e+03   2.8393879e+03   2.8336366e+03   2.8280628e+03   2.8224889e+03   2.8198930e+03   2.8172970e+03   2.8149503e+03   2.8126037e+03   2.8113580e+03   2.8101124e+03   2.8095574e+03   2.8090024e+03   2.8078133e+03   2.8072388e+03   2.8072383e+03   2.8070535e+03   2.8069745e+03   2.8071674e+03   2.8063916e+03   2.8069796e+03   2.8070975e+03   2.8051096e+03   2.8046121e+03   2.8041145e+03   2.8012608e+03   2.7984070e+03   2.7954096e+03   2.7924123e+03   2.7898097e+03   2.7872072e+03   2.7845285e+03   2.7818498e+03   2.7790967e+03   2.7763436e+03   2.7735858e+03   2.7708279e+03   2.7680678e+03   2.7653077e+03   2.7625359e+03   2.7597640e+03   2.7557178e+03   2.7516717e+03   2.7486302e+03   2.7455887e+03   2.7426874e+03   2.7397860e+03   2.7368531e+03   2.7339203e+03   2.7309244e+03   2.7279285e+03   2.7246809e+03   2.7214332e+03   2.7177434e+03   2.7140535e+03   2.7114792e+03   2.7089048e+03   2.7027920e+03   2.6966791e+03   2.6905467e+03   2.6844144e+03   2.6779399e+03   2.6714655e+03   2.6651842e+03   2.6589029e+03   2.6546169e+03   2.6503310e+03   2.6461815e+03   2.6420319e+03   2.6388386e+03   2.6356453e+03   2.6308568e+03   2.6260683e+03
2.8730195e+03   2.8780543e+03   2.8764365e+03   2.8755017e+03   2.8745201e+03   2.8737393e+03   2.8730393e+03   2.8723539e+03   2.8716688e+03   2.8709823e+03   2.8702926e+03   2.8695948e+03   2.8688686e+03   2.8680547e+03   2.8671477e+03   2.8664281e+03   2.8647858e+03   2.8595206e+03   2.8553167e+03   2.8541177e+03   2.8489833e+03   2.8432997e+03   2.8377515e+03   2.8323214e+03   2.8295685e+03   2.8268757e+03   2.8244330e+03   2.8224034e+03   2.8222457e+03   2.8208153e+03   2.8202456e+03   2.8196759e+03   2.8188662e+03   2.8182249e+03   2.8180143e+03   2.8179074e+03   2.8176810e+03   2.8177072e+03   2.8167863e+03   2.8174171e+03   2.8175789e+03   2.8157644e+03   2.8151854e+03   2.8146064e+03   2.8117344e+03   2.8088625e+03   2.8059189e+03   2.8029753e+03   2.8003167e+03   2.7976581e+03   2.7949450e+03   2.7922318e+03   2.7894472e+03   2.7866626e+03   2.7838742e+03   2.7810857e+03   2.7782969e+03   2.7755081e+03   2.7727074e+03   2.7699067e+03   2.7658476e+03   2.7617885e+03   2.7587323e+03   2.7556760e+03   2.7527474e+03   2.7498189e+03   2.7468596e+03   2.7439002e+03   2.7408814e+03   2.7378625e+03   2.7345939e+03   2.7313253e+03   2.7275990e+03   2.7238727e+03   2.7213383e+03   2.7188040e+03   2.7126361e+03   2.7064681e+03   2.7001559e+03   2.6938436e+03   2.6872375e+03   2.6806313e+03   2.6742058e+03   2.6677802e+03   2.6632468e+03   2.6587135e+03   2.6542986e+03   2.6498837e+03   2.6466762e+03   2.6434686e+03   2.6389488e+03   2.6344291e+03
2.8843361e+03   2.8881741e+03   2.8864241e+03   2.8853527e+03   2.8842709e+03   2.8834417e+03   2.8827056e+03   2.8819823e+03   2.8812583e+03   2.8805323e+03   2.8798026e+03   2.8790630e+03   2.8782917e+03   2.8774200e+03   2.8764047e+03   2.8755206e+03   2.8739156e+03   2.8690800e+03   2.8650879e+03   2.8634781e+03   2.8583543e+03   2.8527329e+03   2.8472220e+03   2.8419005e+03   2.8390078e+03   2.8362794e+03   2.8341793e+03   2.8321690e+03   2.8320296e+03   2.8312058e+03   2.8306205e+03   2.8300352e+03   2.8297293e+03   2.8292453e+03   2.8289541e+03   2.8287557e+03   2.8282489e+03   2.8280055e+03   2.8269547e+03   2.8275978e+03   2.8278276e+03   2.8258475e+03   2.8251928e+03   2.8245382e+03   2.8216351e+03   2.8187320e+03   2.8161352e+03   2.8135383e+03   2.8105104e+03   2.8074826e+03   2.8047428e+03   2.8020030e+03   2.7991928e+03   2.7963825e+03   2.7935689e+03   2.7907552e+03   2.7879423e+03   2.7851294e+03   2.7823049e+03   2.7794804e+03   2.7755953e+03   2.7717103e+03   2.7686629e+03   2.7656157e+03   2.7626601e+03   2.7597046e+03   2.7567210e+03   2.7537374e+03   2.7506955e+03   2.7476535e+03   2.7443858e+03   2.7411181e+03   2.7373976e+03   2.7336772e+03   2.7311555e+03   2.7286339e+03   2.7223213e+03   2.7160087e+03   2.7094084e+03   2.7028080e+03   2.6960814e+03   2.6893549e+03   2.6827946e+03   2.6762343e+03   2.6714617e+03   2.6666890e+03   2.6620412e+03   2.6573935e+03   2.6538612e+03   2.6503291e+03   2.6451375e+03   2.6399460e+03
2.8956527e+03   2.8980356e+03   2.8961288e+03   2.8948804e+03   2.8937006e+03   2.8928268e+03   2.8920549e+03   2.8912932e+03   2.8905295e+03   2.8897636e+03   2.8889930e+03   2.8882105e+03   2.8873925e+03   2.8864660e+03   2.8853584e+03   2.8843208e+03   2.8827275e+03   2.8783134e+03   2.8744602e+03   2.8725215e+03   2.8674383e+03   2.8618768e+03   2.8564112e+03   2.8511708e+03   2.8481493e+03   2.8454254e+03   2.8438694e+03   2.8416476e+03   2.8409880e+03   2.8415962e+03   2.8409954e+03   2.8403945e+03   2.8400367e+03   2.8394873e+03   2.8391165e+03   2.8389597e+03   2.8384393e+03   2.8381289e+03   2.8370229e+03   2.8374960e+03   2.8376961e+03   2.8359305e+03   2.8352002e+03   2.8344699e+03   2.8315357e+03   2.8286015e+03   2.8263514e+03   2.8241013e+03   2.8207041e+03   2.8173070e+03   2.8145406e+03   2.8117742e+03   2.8089383e+03   2.8061025e+03   2.8032636e+03   2.8004247e+03   2.7975876e+03   2.7947506e+03   2.7919023e+03   2.7890541e+03   2.7853430e+03   2.7816320e+03   2.7785936e+03   2.7755553e+03   2.7725727e+03   2.7695902e+03   2.7665824e+03   2.7635746e+03   2.7605096e+03   2.7574446e+03   2.7541777e+03   2.7509108e+03   2.7471962e+03   2.7434817e+03   2.7409727e+03   2.7384638e+03   2.7320066e+03   2.7255494e+03   2.7186609e+03   2.7117723e+03   2.7049253e+03   2.6980784e+03   2.6913834e+03   2.6846884e+03   2.6796764e+03   2.6746645e+03   2.6697838e+03   2.6649032e+03   2.6610464e+03   2.6571895e+03   2.6513262e+03   2.6454629e+03
2.9069692e+03   2.9077062e+03   2.9055908e+03   2.9041352e+03   2.9028642e+03   2.9019498e+03   2.9011428e+03   2.9003428e+03   2.8995392e+03   2.8987331e+03   2.8979215e+03   2.8970950e+03   2.8962290e+03   2.8952507e+03   2.8940672e+03   2.8928930e+03   2.8912902e+03   2.8872663e+03   2.8834548e+03   2.8812228e+03   2.8761979e+03   2.8706951e+03   2.8652806e+03   2.8601041e+03   2.8569776e+03   2.8542540e+03   2.8532439e+03   2.8506696e+03   2.8492212e+03   2.8512420e+03   2.8506229e+03   2.8500036e+03   2.8498265e+03   2.8491576e+03   2.8486745e+03   2.8485569e+03   2.8481151e+03   2.8478381e+03   2.8467513e+03   2.8472431e+03   2.8474203e+03   2.8455552e+03   2.8447658e+03   2.8439765e+03   2.8410127e+03   2.8380490e+03   2.8354897e+03   2.8329304e+03   2.8298099e+03   2.8266894e+03   2.8239005e+03   2.8211116e+03   2.8182547e+03   2.8153978e+03   2.8125379e+03   2.8096780e+03   2.8068205e+03   2.8039630e+03   2.8010947e+03   2.7982265e+03   2.7948622e+03   2.7914980e+03   2.7884671e+03   2.7854361e+03   2.7824331e+03   2.7794302e+03   2.7764071e+03   2.7733840e+03   2.7703100e+03   2.7672360e+03   2.7640641e+03   2.7608922e+03   2.7573218e+03   2.7537515e+03   2.7510448e+03   2.7483381e+03   2.7415291e+03   2.7347200e+03   2.7275673e+03   2.7204145e+03   2.7134567e+03   2.7064988e+03   2.6996796e+03   2.6928603e+03   2.6876256e+03   2.6823908e+03   2.6772958e+03   2.6722009e+03   2.6677915e+03   2.6633822e+03   2.6571810e+03   2.6509798e+03
2.9182858e+03   2.9172539e+03   2.9148428e+03   2.9131631e+03   2.9118127e+03   2.9108625e+03   2.9100212e+03   2.9091830e+03   2.9083401e+03   2.9074942e+03   2.9066416e+03   2.9057709e+03   2.9048559e+03   2.9038281e+03   2.9023386e+03   2.9010596e+03   2.8994369e+03   2.8957663e+03   2.8916928e+03   2.8889824e+03   2.8839859e+03   2.8785405e+03   2.8731991e+03   2.8680979e+03   2.8655047e+03   2.8627372e+03   2.8621400e+03   2.8591729e+03   2.8571202e+03   2.8604467e+03   2.8602503e+03   2.8596128e+03   2.8592304e+03   2.8586063e+03   2.8581517e+03   2.8580126e+03   2.8576055e+03   2.8573589e+03   2.8562931e+03   2.8567663e+03   2.8568738e+03   2.8551798e+03   2.8543314e+03   2.8534831e+03   2.8504898e+03   2.8474964e+03   2.8446280e+03   2.8417596e+03   2.8389157e+03   2.8360718e+03   2.8332605e+03   2.8304491e+03   2.8275711e+03   2.8246931e+03   2.8218122e+03   2.8189313e+03   2.8160534e+03   2.8131754e+03   2.8102871e+03   2.8073988e+03   2.8043814e+03   2.8013640e+03   2.7983404e+03   2.7953169e+03   2.7922935e+03   2.7892702e+03   2.7862319e+03   2.7831935e+03   2.7801105e+03   2.7770274e+03   2.7739506e+03   2.7708737e+03   2.7674475e+03   2.7640212e+03   2.7611168e+03   2.7582124e+03   2.7510515e+03   2.7438906e+03   2.7364737e+03   2.7290568e+03   2.7219880e+03   2.7149192e+03   2.7079757e+03   2.7010323e+03   2.6955748e+03   2.6901172e+03   2.6848079e+03   2.6794985e+03   2.6745368e+03   2.6695750e+03   2.6630359e+03   2.6564967e+03
2.9296024e+03   2.9266296e+03   2.9237254e+03   2.9218629e+03   2.9204354e+03   2.9196115e+03   2.9187370e+03   2.9178615e+03   2.9169800e+03   2.9160952e+03   2.9152023e+03   2.9142875e+03   2.9133230e+03   2.9122475e+03   2.9106101e+03   2.9092421e+03   2.9076045e+03   2.9042126e+03   2.8997871e+03   2.8966114e+03   2.8916360e+03   2.8862572e+03   2.8809797e+03   2.8759652e+03   2.8737546e+03   2.8708793e+03   2.8704969e+03   2.8671761e+03   2.8648194e+03   2.8696322e+03   2.8695638e+03   2.8689068e+03   2.8685183e+03   2.8679785e+03   2.8675397e+03   2.8673502e+03   2.8669475e+03   2.8667082e+03   2.8656438e+03   2.8661325e+03   2.8661886e+03   2.8643533e+03   2.8634482e+03   2.8625433e+03   2.8595255e+03   2.8565077e+03   2.8536204e+03   2.8507333e+03   2.8478748e+03   2.8450163e+03   2.8421861e+03   2.8393560e+03   2.8364610e+03   2.8335661e+03   2.8306683e+03   2.8277705e+03   2.8248758e+03   2.8219811e+03   2.8190765e+03   2.8161719e+03   2.8131419e+03   2.8101120e+03   2.8070764e+03   2.8040408e+03   2.8010060e+03   2.7979713e+03   2.7949223e+03   2.7918735e+03   2.7887814e+03   2.7856894e+03   2.7826058e+03   2.7795221e+03   2.7760969e+03   2.7726717e+03   2.7697607e+03   2.7668497e+03   2.7596182e+03   2.7523868e+03   2.7448996e+03   2.7374124e+03   2.7302526e+03   2.7230928e+03   2.7160475e+03   2.7090022e+03   2.7033562e+03   2.6977103e+03   2.6922012e+03   2.6866921e+03   2.6813266e+03   2.6759610e+03   2.6689873e+03   2.6620136e+03
2.9409190e+03   2.9360062e+03   2.9325645e+03   2.9305170e+03   2.9290422e+03   2.9282389e+03   2.9273324e+03   2.9264209e+03   2.9255023e+03   2.9245799e+03   2.9236480e+03   2.9226899e+03   2.9216758e+03   2.9205534e+03   2.9188750e+03   2.9174374e+03   2.9157944e+03   2.9126115e+03   2.9077304e+03   2.9040902e+03   2.8991259e+03   2.8938132e+03   2.8885907e+03   2.8836674e+03   2.8817545e+03   2.8787088e+03   2.8783309e+03   2.8747379e+03   2.8720134e+03   2.8775209e+03   2.8782334e+03   2.8779232e+03   2.8775608e+03   2.8768560e+03   2.8762862e+03   2.8761655e+03   2.8760437e+03   2.8759192e+03   2.8749003e+03   2.8752315e+03   2.8746235e+03   2.8735267e+03   2.8725651e+03   2.8716034e+03   2.8685611e+03   2.8655189e+03   2.8626129e+03   2.8597069e+03   2.8568339e+03   2.8539609e+03   2.8511118e+03   2.8482628e+03   2.8453510e+03   2.8424391e+03   2.8395244e+03   2.8366097e+03   2.8336982e+03   2.8307867e+03   2.8278658e+03   2.8249449e+03   2.8219025e+03   2.8188600e+03   2.8158124e+03   2.8127648e+03   2.8097186e+03   2.8066723e+03   2.8036128e+03   2.8005534e+03   2.7974524e+03   2.7943514e+03   2.7912609e+03   2.7881705e+03   2.7847464e+03   2.7813222e+03   2.7784046e+03   2.7754869e+03   2.7681850e+03   2.7608831e+03   2.7533256e+03   2.7457681e+03   2.7385172e+03   2.7312664e+03   2.7241193e+03   2.7169721e+03   2.7111377e+03   2.7053034e+03   2.6995945e+03   2.6938857e+03   2.6881164e+03   2.6823471e+03   2.6749388e+03   2.6675305e+03
2.9486692e+03   2.9454239e+03   2.9413943e+03   2.9391347e+03   2.9376397e+03   2.9367822e+03   2.9358453e+03   2.9348997e+03   2.9339459e+03   2.9329877e+03   2.9320185e+03   2.9310184e+03   2.9299553e+03   2.9287860e+03   2.9271361e+03   2.9256495e+03   2.9240155e+03   2.9209751e+03   2.9155266e+03   2.9114112e+03   2.9064464e+03   2.9011949e+03   2.8960171e+03   2.8911881e+03   2.8895307e+03   2.8862675e+03   2.8857000e+03   2.8819363e+03   2.8788792e+03   2.8829559e+03   2.8836814e+03   2.8839649e+03   2.8841198e+03   2.8845365e+03   2.8855732e+03   2.8852725e+03   2.8850297e+03   2.8847868e+03   2.8845439e+03   2.8843009e+03   2.8822314e+03   2.8801618e+03   2.8790807e+03   2.8779995e+03   2.8749531e+03   2.8719068e+03   2.8689958e+03   2.8660849e+03   2.8632036e+03   2.8603222e+03   2.8574618e+03   2.8546013e+03   2.8516785e+03   2.8487557e+03   2.8458303e+03   2.8429048e+03   2.8399821e+03   2.8370595e+03   2.8341284e+03   2.8311973e+03   2.8281465e+03   2.8250956e+03   2.8220404e+03   2.8189851e+03   2.8159311e+03   2.8128771e+03   2.8098113e+03   2.8067455e+03   2.8036386e+03   2.8005316e+03   2.7974360e+03   2.7943405e+03   2.7909325e+03   2.7875244e+03   2.7845868e+03   2.7816491e+03   2.7742778e+03   2.7669065e+03   2.7593111e+03   2.7517157e+03   2.7444060e+03   2.7370963e+03   2.7298814e+03   2.7226665e+03   2.7167083e+03   2.7107502e+03   2.7048994e+03   2.6990485e+03   2.6930392e+03   2.6870297e+03   2.6800386e+03   2.6730474e+03
2.9520511e+03   2.9501695e+03   2.9458119e+03   2.9434311e+03   2.9419389e+03   2.9410287e+03   2.9400777e+03   2.9391161e+03   2.9381460e+03   2.9371711e+03   2.9361843e+03   2.9351642e+03   2.9340770e+03   2.9328839e+03   2.9312695e+03   2.9297690e+03   2.9281484e+03   2.9251472e+03   2.9193579e+03   2.9149956e+03   2.9100242e+03   2.9048004e+03   2.8996393e+03   2.8948592e+03   2.8933196e+03   2.8899351e+03   2.8891902e+03   2.8853879e+03   2.8822749e+03   2.8857893e+03   2.8864589e+03   2.8868033e+03   2.8870724e+03   2.8878666e+03   2.8899315e+03   2.8895808e+03   2.8893579e+03   2.8891348e+03   2.8889118e+03   2.8886887e+03   2.8860841e+03   2.8834793e+03   2.8823385e+03   2.8811976e+03   2.8781492e+03   2.8751007e+03   2.8721872e+03   2.8692739e+03   2.8663884e+03   2.8635028e+03   2.8606368e+03   2.8577706e+03   2.8548423e+03   2.8519141e+03   2.8489832e+03   2.8460523e+03   2.8431241e+03   2.8401959e+03   2.8372597e+03   2.8343236e+03   2.8312685e+03   2.8282134e+03   2.8251543e+03   2.8220953e+03   2.8190373e+03   2.8159794e+03   2.8129105e+03   2.8098416e+03   2.8067317e+03   2.8036217e+03   2.8005236e+03   2.7974255e+03   2.7940255e+03   2.7906256e+03   2.7876779e+03   2.7847302e+03   2.7773242e+03   2.7699183e+03   2.7623039e+03   2.7546896e+03   2.7473504e+03   2.7400112e+03   2.7327625e+03   2.7255137e+03   2.7194936e+03   2.7134736e+03   2.7075518e+03   2.7016300e+03   2.6955006e+03   2.6893711e+03   2.6825885e+03   2.6758058e+03
2.9554329e+03   2.9549152e+03   2.9502294e+03   2.9477275e+03   2.9462380e+03   2.9452753e+03   2.9443100e+03   2.9433325e+03   2.9423460e+03   2.9413545e+03   2.9403502e+03   2.9393099e+03   2.9381988e+03   2.9369818e+03   2.9354030e+03   2.9338886e+03   2.9322813e+03   2.9293194e+03   2.9231892e+03   2.9185801e+03   2.9136020e+03   2.9084059e+03   2.9032615e+03   2.8985302e+03   2.8971086e+03   2.8936026e+03   2.8926804e+03   2.8888394e+03   2.8856707e+03   2.8886227e+03   2.8892364e+03   2.8896417e+03   2.8900250e+03   2.8911968e+03   2.8942899e+03   2.8938891e+03   2.8936860e+03   2.8934829e+03   2.8932797e+03   2.8930766e+03   2.8899367e+03   2.8867969e+03   2.8855963e+03   2.8843957e+03   2.8813452e+03   2.8782946e+03   2.8753787e+03   2.8724629e+03   2.8695732e+03   2.8666835e+03   2.8638117e+03   2.8609398e+03   2.8580061e+03   2.8550724e+03   2.8521361e+03   2.8491999e+03   2.8462661e+03   2.8433322e+03   2.8403910e+03   2.8374498e+03   2.8343905e+03   2.8313312e+03   2.8282683e+03   2.8252055e+03   2.8221436e+03   2.8190818e+03   2.8160098e+03   2.8129377e+03   2.8098248e+03   2.8067118e+03   2.8036112e+03   2.8005105e+03   2.7971186e+03   2.7937267e+03   2.7907690e+03   2.7878113e+03   2.7803706e+03   2.7729300e+03   2.7652967e+03   2.7576634e+03   2.7502948e+03   2.7429261e+03   2.7356435e+03   2.7283609e+03   2.7222789e+03   2.7161970e+03   2.7102042e+03   2.7042114e+03   2.6979619e+03   2.6917124e+03   2.6851384e+03   2.6785643e+03
2.9585732e+03   2.9596654e+03   2.9546617e+03   2.9520305e+03   2.9505534e+03   2.9495152e+03   2.9485376e+03   2.9475464e+03   2.9465458e+03   2.9455396e+03   2.9445193e+03   2.9434599e+03   2.9423245e+03   2.9410798e+03   2.9395477e+03   2.9380291e+03   2.9364491e+03   2.9334994e+03   2.9269781e+03   2.9220864e+03   2.9170834e+03   2.9119104e+03   2.9067769e+03   2.9021051e+03   2.9007592e+03   2.8971475e+03   2.8959561e+03   2.8921015e+03   2.8889649e+03   2.8913994e+03   2.8920323e+03   2.8924467e+03   2.8929296e+03   2.8941285e+03   2.8966155e+03   2.8963263e+03   2.8958077e+03   2.8955612e+03   2.8954034e+03   2.8950871e+03   2.8923309e+03   2.8895776e+03   2.8883261e+03   2.8870728e+03   2.8840319e+03   2.8809832e+03   2.8780637e+03   2.8751474e+03   2.8722540e+03   2.8693609e+03   2.8664843e+03   2.8636076e+03   2.8606699e+03   2.8577319e+03   2.8547914e+03   2.8518511e+03   2.8489130e+03   2.8459749e+03   2.8430300e+03   2.8400843e+03   2.8370224e+03   2.8339601e+03   2.8308945e+03   2.8278289e+03   2.8247642e+03   2.8216997e+03   2.8186256e+03   2.8155511e+03   2.8124363e+03   2.8093215e+03   2.8062188e+03   2.8031152e+03   2.7997369e+03   2.7963496e+03   2.7933773e+03   2.7904058e+03   2.7829591e+03   2.7754876e+03   2.7678393e+03   2.7601945e+03   2.7528030e+03   2.7454120e+03   2.7381032e+03   2.7307959e+03   2.7246628e+03   2.7185311e+03   2.7124803e+03   2.7064305e+03   2.7001020e+03   2.6937673e+03   2.6875356e+03   2.6813228e+03
2.9617134e+03   2.9644289e+03   2.9590947e+03   2.9563316e+03   2.9548729e+03   2.9537583e+03   2.9527688e+03   2.9517645e+03   2.9507503e+03   2.9497299e+03   2.9486943e+03   2.9476167e+03   2.9464578e+03   2.9451860e+03   2.9437036e+03   2.9421857e+03   2.9406357e+03   2.9376821e+03   2.9307454e+03   2.9255746e+03   2.9205494e+03   2.9154004e+03   2.9102767e+03   2.9056623e+03   2.9043989e+03   2.9006810e+03   2.8992131e+03   2.8953555e+03   2.8922837e+03   2.8942622e+03   2.8948275e+03   2.8952402e+03   2.8958190e+03   2.8970535e+03   2.8989385e+03   2.8985218e+03   2.8979291e+03   2.8976320e+03   2.8974316e+03   2.8971921e+03   2.8947673e+03   2.8923463e+03   2.8910341e+03   2.8897231e+03   2.8866887e+03   2.8836401e+03   2.8807183e+03   2.8778017e+03   2.8749048e+03   2.8720085e+03   2.8691274e+03   2.8662463e+03   2.8633048e+03   2.8603627e+03   2.8574183e+03   2.8544741e+03   2.8515320e+03   2.8485899e+03   2.8456414e+03   2.8426918e+03   2.8396274e+03   2.8365622e+03   2.8334942e+03   2.8304260e+03   2.8273587e+03   2.8242916e+03   2.8212156e+03   2.8181388e+03   2.8150223e+03   2.8119059e+03   2.8088012e+03   2.8056950e+03   2.8023288e+03   2.7989503e+03   2.7959624e+03   2.7929887e+03   2.7855271e+03   2.7780256e+03   2.7703652e+03   2.7627104e+03   2.7552978e+03   2.7478861e+03   2.7405526e+03   2.7332217e+03   2.7270372e+03   2.7208554e+03   2.7147472e+03   2.7086406e+03   2.7022305e+03   2.6958115e+03   2.6899335e+03   2.6840812e+03
2.9648537e+03   2.9692395e+03   2.9635268e+03   2.9606320e+03   2.9591975e+03   2.9580049e+03   2.9570041e+03   2.9559873e+03   2.9549599e+03   2.9539260e+03   2.9528757e+03   2.9517805e+03   2.9505987e+03   2.9493004e+03   2.9478698e+03   2.9463569e+03   2.9448394e+03   2.9418677e+03   2.9344949e+03   2.9290467e+03   2.9240003e+03   2.9188754e+03   2.9137605e+03   2.9092027e+03   2.9080241e+03   2.9042001e+03   2.9024489e+03   2.8985992e+03   2.8956117e+03   2.8971788e+03   2.8976295e+03   2.8980293e+03   2.8986828e+03   2.8999111e+03   2.9012252e+03   2.9006232e+03   2.9000195e+03   2.8996901e+03   2.8994330e+03   2.8993643e+03   2.8972298e+03   2.8950818e+03   2.8937063e+03   2.8923395e+03   2.8893089e+03   2.8862605e+03   2.8833375e+03   2.8804209e+03   2.8775210e+03   2.8746217e+03   2.8717365e+03   2.8688515e+03   2.8659064e+03   2.8629605e+03   2.8600126e+03   2.8570649e+03   2.8541190e+03   2.8511733e+03   2.8482215e+03   2.8452683e+03   2.8422016e+03   2.8391339e+03   2.8360636e+03   2.8329932e+03   2.8299235e+03   2.8268541e+03   2.8237763e+03   2.8206974e+03   2.8175794e+03   2.8144617e+03   2.8113552e+03   2.8082468e+03   2.8048921e+03   2.8015243e+03   2.7985218e+03   2.7955490e+03   2.7880688e+03   2.7805405e+03   2.7728705e+03   2.7652073e+03   2.7577755e+03   2.7503449e+03   2.7429884e+03   2.7356352e+03   2.7294002e+03   2.7231689e+03   2.7170043e+03   2.7108417e+03   2.7043493e+03   2.6978474e+03   2.6923306e+03   2.6868396e+03
2.9679939e+03   2.9741368e+03   2.9679570e+03   2.9649362e+03   2.9635321e+03   2.9622601e+03   2.9612486e+03   2.9602201e+03   2.9591805e+03   2.9581338e+03   2.9570696e+03   2.9559577e+03   2.9547537e+03   2.9534287e+03   2.9520518e+03   2.9505490e+03   2.9490675e+03   2.9460620e+03   2.9382304e+03   2.9325048e+03   2.9274368e+03   2.9223358e+03   2.9172288e+03   2.9127270e+03   2.9116288e+03   2.9077030e+03   2.9056610e+03   2.9018305e+03   2.8989412e+03   2.9001329e+03   2.9004454e+03   2.9008166e+03   2.9015011e+03   2.9026665e+03   2.9034835e+03   2.9026897e+03   2.9020816e+03   2.9017353e+03   2.9014374e+03   2.9015762e+03   2.8996985e+03   2.8977752e+03   2.8963402e+03   2.8949229e+03   2.8918943e+03   2.8888467e+03   2.8859235e+03   2.8830072e+03   2.8801047e+03   2.8772027e+03   2.8743138e+03   2.8714252e+03   2.8684768e+03   2.8655275e+03   2.8625763e+03   2.8596253e+03   2.8566760e+03   2.8537269e+03   2.8507721e+03   2.8478157e+03   2.8447469e+03   2.8416770e+03   2.8386047e+03   2.8355323e+03   2.8324604e+03   2.8293889e+03   2.8263096e+03   2.8232289e+03   2.8201097e+03   2.8169908e+03   2.8138828e+03   2.8107724e+03   2.8074288e+03   2.8040728e+03   2.8010570e+03   2.7980844e+03   2.7905847e+03   2.7830333e+03   2.7753559e+03   2.7676858e+03   2.7602366e+03   2.7527887e+03   2.7454110e+03   2.7380371e+03   2.7317524e+03   2.7254721e+03   2.7192525e+03   2.7130348e+03   2.7064599e+03   2.6998766e+03   2.6947258e+03   2.6895981e+03
2.9723420e+03   2.9790931e+03   2.9723827e+03   2.9692448e+03   2.9678766e+03   2.9665238e+03   2.9655024e+03   2.9644628e+03   2.9634117e+03   2.9623530e+03   2.9612757e+03   2.9601479e+03   2.9589223e+03   2.9575705e+03   2.9562486e+03   2.9547599e+03   2.9533174e+03   2.9502639e+03   2.9419543e+03   2.9359507e+03   2.9308605e+03   2.9257832e+03   2.9206838e+03   2.9162381e+03   2.9152139e+03   2.9111907e+03   2.9088530e+03   2.9050510e+03   2.9022664e+03   2.9031101e+03   2.9032756e+03   2.9036032e+03   2.9042743e+03   2.9053304e+03   2.9057268e+03   2.9047525e+03   2.9041254e+03   2.9037700e+03   2.9034560e+03   2.9038066e+03   2.9021589e+03   2.9004274e+03   2.8989403e+03   2.8974786e+03   2.8944511e+03   2.8914051e+03   2.8884823e+03   2.8855666e+03   2.8826617e+03   2.8797573e+03   2.8768649e+03   2.8739730e+03   2.8710215e+03   2.8680690e+03   2.8651148e+03   2.8621608e+03   2.8592084e+03   2.8562561e+03   2.8532985e+03   2.8503392e+03   2.8472684e+03   2.8441966e+03   2.8411225e+03   2.8380482e+03   2.8349745e+03   2.8319010e+03   2.8288204e+03   2.8257382e+03   2.8226179e+03   2.8194979e+03   2.8163886e+03   2.8132765e+03   2.8099438e+03   2.8065999e+03   2.8035723e+03   2.8005977e+03   2.7930792e+03   2.7855080e+03   2.7778249e+03   2.7701491e+03   2.7626840e+03   2.7552203e+03   2.7478228e+03   2.7404294e+03   2.7340958e+03   2.7277672e+03   2.7214934e+03   2.7152216e+03   2.7085643e+03   2.7019003e+03   2.6971187e+03   2.6923565e+03
2.9766901e+03   2.9839005e+03   2.9768258e+03   2.9735728e+03   2.9722491e+03   2.9708124e+03   2.9697823e+03   2.9687329e+03   2.9676716e+03   2.9666022e+03   2.9655130e+03   2.9643703e+03   2.9631236e+03   2.9617437e+03   2.9604761e+03   2.9590071e+03   2.9576076e+03   2.9544873e+03   2.9456850e+03   2.9394022e+03   2.9342873e+03   2.9292324e+03   2.9241406e+03   2.9197512e+03   2.9187768e+03   2.9146682e+03   2.9120316e+03   2.9082687e+03   2.9055875e+03   2.9061086e+03   2.9061265e+03   2.9063959e+03   2.9070087e+03   2.9078920e+03   2.9079348e+03   2.9068675e+03   2.9062124e+03   2.9058479e+03   2.9055575e+03   2.9060688e+03   2.9045927e+03   2.9030090e+03   2.9014886e+03   2.8999927e+03   2.8969669e+03   2.8939236e+03   2.8910016e+03   2.8880866e+03   2.8851795e+03   2.8822729e+03   2.8793774e+03   2.8764824e+03   2.8735280e+03   2.8705726e+03   2.8676157e+03   2.8646590e+03   2.8617037e+03   2.8587485e+03   2.8557884e+03   2.8528264e+03   2.8497540e+03   2.8466805e+03   2.8436048e+03   2.8405290e+03   2.8374536e+03   2.8343785e+03   2.8312967e+03   2.8282131e+03   2.8250920e+03   2.8219713e+03   2.8188607e+03   2.8157473e+03   2.8124248e+03   2.8090929e+03   2.8060555e+03   2.8030772e+03   2.7955413e+03   2.7879537e+03   2.7802665e+03   2.7725865e+03   2.7651072e+03   2.7576293e+03   2.7502140e+03   2.7428029e+03   2.7364214e+03   2.7300451e+03   2.7237187e+03   2.7173936e+03   2.7107076e+03   2.7040182e+03   2.6995599e+03   2.6951150e+03
2.9807966e+03   2.9885122e+03   2.9812834e+03   2.9779230e+03   2.9766500e+03   2.9751264e+03   2.9740885e+03   2.9730304e+03   2.9719605e+03   2.9708816e+03   2.9697816e+03   2.9686249e+03   2.9673573e+03   2.9659482e+03   2.9647341e+03   2.9632898e+03   2.9619372e+03   2.9587342e+03   2.9494296e+03   2.9428634e+03   2.9377186e+03   2.9326847e+03   2.9276013e+03   2.9232708e+03   2.9223213e+03   2.9181394e+03   2.9152059e+03   2.9114856e+03   2.9089034e+03   2.9091222e+03   2.9089963e+03   2.9091961e+03   2.9097162e+03   2.9103832e+03   2.9101303e+03   2.9090478e+03   2.9083771e+03   2.9080088e+03   2.9077387e+03   2.9083346e+03   2.9069892e+03   2.9055252e+03   2.9039878e+03   2.9024683e+03   2.8994453e+03   2.8964057e+03   2.8934849e+03   2.8905706e+03   2.8876616e+03   2.8847529e+03   2.8818545e+03   2.8789566e+03   2.8759996e+03   2.8730417e+03   2.8700823e+03   2.8671232e+03   2.8641653e+03   2.8612075e+03   2.8582450e+03   2.8552807e+03   2.8522069e+03   2.8491319e+03   2.8460549e+03   2.8429778e+03   2.8399010e+03   2.8368244e+03   2.8337416e+03   2.8306571e+03   2.8275354e+03   2.8244140e+03   2.8213024e+03   2.8181880e+03   2.8148753e+03   2.8115548e+03   2.8085090e+03   2.8055251e+03   2.7979745e+03   2.7903737e+03   2.7826840e+03   2.7750010e+03   2.7675091e+03   2.7600185e+03   2.7525869e+03   2.7451596e+03   2.7387310e+03   2.7323078e+03   2.7259300e+03   2.7195523e+03   2.7128949e+03   2.7062410e+03   2.7020554e+03   2.6978734e+03
