2.4712774e+03   2.4801991e+03   2.4801361e+03   2.4796608e+03   2.4793529e+03   2.4791006e+03   2.4713557e+03   2.4708038e+03   2.4708846e+03   2.4722984e+03   2.4715974e+03   2.4685193e+03   2.4698707e+03   2.4720866e+03   2.4716345e+03   2.4696875e+03   2.4694283e+03   2.4697276e+03   2.4700352e+03   2.4702246e+03   2.4703203e+03   2.4703053e+03   2.4701524e+03   2.4699950e+03   2.4699588e+03   2.4699039e+03   2.4696714e+03   2.4694769e+03   2.4695248e+03   2.4695415e+03   2.4692839e+03   2.4688966e+03   2.4685391e+03   2.4681231e+03   2.4676031e+03   2.4670716e+03   2.4665766e+03   2.4661188e+03   2.4657627e+03   2.4656272e+03   2.4656606e+03   2.4656157e+03   2.4653485e+03   2.4649527e+03   2.4645040e+03   2.4639719e+03   2.4633417e+03   2.4626651e+03   2.4619536e+03   2.4611525e+03   2.4602524e+03   2.4593118e+03   2.4583617e+03   2.4573929e+03   2.4564173e+03   2.4554819e+03   2.4546176e+03   2.4538530e+03   2.4532215e+03   2.4527819e+03   2.4524883e+03   2.4522210e+03   2.4519426e+03   2.4517456e+03   2.4516059e+03   2.4514154e+03   2.4511668e+03   2.4509675e+03   2.4508066e+03   2.4505969e+03   2.4503819e+03   2.4498625e+03   2.4492808e+03   2.4489935e+03   2.4489149e+03   2.4481399e+03   2.4469216e+03   2.4460972e+03   2.4458192e+03   2.4452053e+03   2.4438774e+03   2.4423741e+03   2.4411690e+03   2.4404469e+03   2.4402292e+03   2.4405091e+03   2.4412723e+03   2.4424326e+03   2.4437887e+03   2.4451148e+03   2.4462637e+03   2.4471195e+03   2.4475102e+03   2.4472484e+03   2.4461956e+03   2.4442588e+03   2.4414072e+03   2.4377796e+03   2.4338546e+03   2.4302573e+03   2.4273192e+03   2.4249932e+03   2.4229579e+03   2.4210613e+03   2.4192005e+03   2.4173720e+03   2.4154681e+03   2.4133378e+03   2.4107767e+03   2.4077498e+03   2.4046429e+03   2.4018362e+03   2.3993571e+03   2.3970622e+03   2.3955468e+03   2.3990331e+03   2.3973933e+03   2.3965299e+03   2.3953305e+03   2.3932120e+03   2.3909549e+03   2.3888607e+03   2.3871498e+03   2.3857559e+03   2.3845363e+03   2.3822425e+03   2.3791282e+03   2.3759646e+03   2.3725958e+03   2.3681344e+03   2.3633741e+03   2.3589908e+03   2.3551192e+03   2.3530701e+03   2.3514254e+03   2.3501975e+03   2.3493574e+03   2.3501327e+03   2.3512681e+03   2.3537184e+03   2.3592332e+03
2.4864096e+03   2.4991082e+03   2.4990892e+03   2.4985814e+03   2.4982955e+03   2.4980581e+03   2.4860652e+03   2.4854750e+03   2.4855463e+03   2.4868224e+03   2.4862373e+03   2.4833243e+03   2.4846116e+03   2.4867622e+03   2.4863953e+03   2.4843399e+03   2.4841847e+03   2.4845565e+03   2.4848685e+03   2.4850288e+03   2.4851042e+03   2.4850816e+03   2.4849047e+03   2.4847022e+03   2.4846389e+03   2.4845854e+03   2.4843423e+03   2.4840994e+03   2.4841121e+03   2.4841432e+03   2.4838950e+03   2.4834826e+03   2.4831178e+03   2.4827289e+03   2.4822597e+03   2.4818239e+03   2.4814736e+03   2.4811968e+03   2.4810708e+03   2.4812618e+03   2.4816995e+03   2.4820350e+03   2.4820012e+03   2.4817023e+03   2.4812953e+03   2.4807848e+03   2.4801576e+03   2.4794618e+03   2.4787351e+03   2.4779266e+03   2.4770058e+03   2.4760246e+03   2.4750297e+03   2.4740108e+03   2.4729764e+03   2.4719773e+03   2.4710504e+03   2.4702184e+03   2.4695257e+03   2.4690429e+03   2.4687461e+03   2.4684897e+03   2.4682037e+03   2.4679802e+03   2.4678469e+03   2.4676731e+03   2.4674201e+03   2.4671959e+03   2.4670423e+03   2.4668499e+03   2.4666525e+03   2.4661672e+03   2.4654302e+03   2.4649848e+03   2.4648849e+03   2.4642094e+03   2.4628726e+03   2.4618936e+03   2.4617407e+03   2.4613101e+03   2.4600132e+03   2.4585733e+03   2.4575258e+03   2.4570074e+03   2.4570158e+03   2.4575449e+03   2.4585633e+03   2.4599578e+03   2.4614700e+03   2.4628262e+03   2.4639050e+03   2.4646652e+03   2.4649698e+03   2.4646352e+03   2.4635246e+03   2.4614349e+03   2.4581450e+03   2.4538149e+03   2.4492389e+03   2.4451781e+03   2.4419158e+03   2.4393741e+03   2.4371380e+03   2.4350720e+03   2.4330776e+03   2.4311924e+03   2.4292825e+03   2.4271762e+03   2.4245840e+03   2.4213623e+03   2.4180205e+03   2.4150810e+03   2.4125086e+03   2.4100868e+03   2.4088702e+03   2.4160142e+03   2.4142977e+03   2.4134249e+03   2.4122795e+03   2.4102401e+03   2.4080798e+03   2.4060993e+03   2.4044443e+03   2.4029946e+03   2.4017178e+03   2.3992591e+03   2.3961798e+03   2.3938851e+03   2.3912585e+03   2.3867386e+03   2.3818521e+03   2.3773432e+03   2.3732974e+03   2.3709636e+03   2.3689899e+03   2.3674211e+03   2.3661760e+03   2.3664352e+03   2.3670630e+03   2.3688490e+03   2.3723764e+03
2.4939757e+03   2.5080945e+03   2.5080559e+03   2.5075740e+03   2.5073097e+03   2.5070797e+03   2.4988998e+03   2.4984012e+03   2.4984167e+03   2.4994925e+03   2.4989945e+03   2.4963679e+03   2.4975343e+03   2.4994848e+03   2.4991575e+03   2.4970894e+03   2.4970332e+03   2.4974428e+03   2.4977361e+03   2.4978605e+03   2.4979155e+03   2.4978927e+03   2.4977100e+03   2.4974851e+03   2.4974071e+03   2.4973522e+03   2.4970925e+03   2.4967954e+03   2.4967501e+03   2.4967446e+03   2.4964555e+03   2.4959782e+03   2.4955620e+03   2.4951459e+03   2.4946824e+03   2.4943222e+03   2.4940894e+03   2.4939452e+03   2.4939858e+03   2.4944424e+03   2.4952216e+03   2.4959030e+03   2.4960886e+03   2.4958681e+03   2.4954812e+03   2.4949775e+03   2.4943493e+03   2.4936351e+03   2.4928881e+03   2.4920667e+03   2.4911250e+03   2.4901094e+03   2.4890775e+03   2.4880202e+03   2.4869427e+03   2.4858994e+03   2.4849242e+03   2.4840292e+03   2.4832722e+03   2.4827491e+03   2.4824413e+03   2.4821791e+03   2.4818649e+03   2.4816022e+03   2.4814463e+03   2.4812516e+03   2.4809528e+03   2.4806725e+03   2.4804760e+03   2.4802432e+03   2.4799928e+03   2.4794664e+03   2.4786903e+03   2.4782488e+03   2.4782529e+03   2.4777365e+03   2.4764020e+03   2.4753905e+03   2.4754404e+03   2.4752160e+03   2.4739787e+03   2.4726571e+03   2.4718003e+03   2.4714783e+03   2.4716787e+03   2.4724083e+03   2.4736285e+03   2.4752168e+03   2.4768821e+03   2.4783023e+03   2.4793661e+03   2.4801156e+03   2.4804393e+03   2.4801065e+03   2.4789342e+03   2.4765954e+03   2.4727316e+03   2.4676636e+03   2.4625648e+03   2.4581745e+03   2.4546323e+03   2.4518784e+03   2.4494396e+03   2.4472192e+03   2.4451109e+03   2.4431886e+03   2.4412860e+03   2.4392194e+03   2.4366228e+03   2.4332308e+03   2.4296820e+03   2.4266357e+03   2.4240231e+03   2.4216381e+03   2.4201742e+03   2.4241532e+03   2.4223930e+03   2.4214946e+03   2.4203530e+03   2.4183404e+03   2.4162194e+03   2.4142906e+03   2.4126661e+03   2.4111976e+03   2.4098994e+03   2.4073507e+03   2.4042892e+03   2.4024734e+03   2.4002535e+03   2.3956974e+03   2.3907438e+03   2.3861695e+03   2.3820354e+03   2.3795707e+03   2.3774480e+03   2.3757253e+03   2.3742942e+03   2.3743090e+03   2.3747153e+03   2.3761731e+03   2.3789480e+03
2.5015417e+03   2.5170808e+03   2.5170226e+03   2.5165666e+03   2.5163239e+03   2.5161014e+03   2.5103315e+03   2.5099349e+03   2.5098730e+03   2.5107326e+03   2.5103009e+03   2.5080203e+03   2.5090393e+03   2.5107244e+03   2.5104185e+03   2.5084286e+03   2.5084626e+03   2.5088735e+03   2.5091303e+03   2.5092209e+03   2.5092604e+03   2.5092429e+03   2.5090672e+03   2.5088378e+03   2.5087557e+03   2.5087022e+03   2.5084281e+03   2.5080781e+03   2.5079671e+03   2.5079013e+03   2.5075505e+03   2.5069966e+03   2.5065144e+03   2.5060449e+03   2.5055624e+03   2.5052647e+03   2.5051311e+03   2.5050911e+03   2.5052612e+03   2.5059387e+03   2.5069936e+03   2.5079677e+03   2.5083495e+03   2.5081910e+03   2.5078136e+03   2.5073097e+03   2.5066801e+03   2.5059506e+03   2.5051834e+03   2.5043478e+03   2.5033886e+03   2.5023450e+03   2.5012850e+03   2.5002013e+03   2.4990945e+03   2.4980212e+03   2.4970115e+03   2.4960675e+03   2.4952575e+03   2.4947047e+03   2.4943876e+03   2.4941179e+03   2.4937772e+03   2.4934791e+03   2.4932985e+03   2.4930774e+03   2.4927295e+03   2.4923910e+03   2.4921470e+03   2.4918676e+03   2.4915494e+03   2.4909619e+03   2.4901674e+03   2.4897641e+03   2.4898749e+03   2.4895133e+03   2.4882269e+03   2.4872074e+03   2.4874211e+03   2.4873692e+03   2.4862132e+03   2.4850672e+03   2.4844400e+03   2.4843309e+03   2.4847231e+03   2.4856247e+03   2.4869883e+03   2.4886974e+03   2.4904701e+03   2.4919598e+03   2.4930519e+03   2.4938535e+03   2.4942629e+03   2.4940113e+03   2.4928300e+03   2.4902102e+03   2.4856941e+03   2.4798934e+03   2.4743876e+03   2.4697524e+03   2.4659270e+03   2.4629396e+03   2.4602879e+03   2.4579278e+03   2.4557253e+03   2.4537804e+03   2.4518909e+03   2.4498656e+03   2.4472807e+03   2.4437534e+03   2.4400399e+03   2.4369148e+03   2.4342981e+03   2.4320287e+03   2.4302595e+03   2.4322921e+03   2.4304883e+03   2.4295643e+03   2.4284266e+03   2.4264408e+03   2.4243590e+03   2.4224819e+03   2.4208879e+03   2.4194006e+03   2.4180810e+03   2.4154422e+03   2.4123986e+03   2.4110618e+03   2.4092485e+03   2.4046562e+03   2.3996355e+03   2.3949959e+03   2.3907735e+03   2.3881779e+03   2.3859061e+03   2.3840296e+03   2.3824124e+03   2.3821828e+03   2.3823675e+03   2.3834972e+03   2.3855196e+03
2.5091078e+03   2.5256261e+03   2.5255314e+03   2.5251187e+03   2.5249003e+03   2.5246844e+03   2.5207235e+03   2.5204093e+03   2.5202856e+03   2.5209447e+03   2.5205618e+03   2.5186313e+03   2.5194996e+03   2.5209100e+03   2.5206164e+03   2.5187636e+03   2.5188715e+03   2.5192585e+03   2.5194715e+03   2.5195357e+03   2.5195669e+03   2.5195593e+03   2.5193987e+03   2.5191767e+03   2.5190988e+03   2.5190509e+03   2.5187676e+03   2.5183680e+03   2.5181900e+03   2.5180537e+03   2.5176337e+03   2.5170026e+03   2.5164510e+03   2.5159177e+03   2.5154031e+03   2.5151565e+03   2.5151056e+03   2.5151497e+03   2.5154264e+03   2.5162955e+03   2.5175751e+03   2.5187939e+03   2.5193507e+03   2.5192447e+03   2.5188706e+03   2.5183633e+03   2.5177314e+03   2.5169884e+03   2.5162023e+03   2.5153537e+03   2.5143813e+03   2.5133156e+03   2.5122331e+03   2.5111297e+03   2.5100009e+03   2.5089032e+03   2.5078668e+03   2.5068854e+03   2.5060338e+03   2.5054608e+03   2.5051396e+03   2.5048693e+03   2.5045124e+03   2.5041883e+03   2.5039887e+03   2.5037503e+03   2.5033641e+03   2.5029755e+03   2.5026884e+03   2.5023691e+03   2.5019990e+03   2.5013765e+03   2.5005684e+03   2.5001689e+03   2.5003372e+03   2.5000947e+03   2.4988591e+03   2.4978270e+03   2.4981427e+03   2.4982094e+03   2.4971523e+03   2.4962153e+03   2.4958390e+03   2.4959646e+03   2.4965596e+03   2.4976132e+03   2.4990668e+03   2.5008293e+03   2.5026702e+03   2.5042454e+03   2.5054167e+03   2.5063174e+03   2.5068543e+03   2.5067555e+03   2.5056311e+03   2.5027328e+03   2.4975379e+03   2.4910300e+03   2.4851849e+03   2.4803299e+03   2.4761907e+03   2.4729450e+03   2.4700756e+03   2.4675918e+03   2.4653129e+03   2.4633552e+03   2.4614807e+03   2.4594920e+03   2.4569268e+03   2.4532991e+03   2.4494631e+03   2.4462834e+03   2.4436653e+03   2.4414752e+03   2.4394704e+03   2.4400495e+03   2.4381971e+03   2.4372177e+03   2.4360471e+03   2.4340592e+03   2.4319989e+03   2.4301525e+03   2.4285742e+03   2.4270788e+03   2.4257422e+03   2.4229860e+03   2.4199172e+03   2.4188646e+03   2.4172884e+03   2.4126262e+03   2.4075381e+03   2.4028400e+03   2.3985320e+03   2.3958364e+03   2.3934393e+03   2.3914376e+03   2.3896669e+03   2.3892263e+03   2.3891875e+03   2.3899315e+03   2.3920912e+03
2.5166739e+03   2.5341714e+03   2.5340402e+03   2.5336708e+03   2.5334767e+03   2.5332674e+03   2.5303128e+03   2.5300553e+03   2.5298906e+03   2.5303801e+03   2.5300348e+03   2.5284212e+03   2.5291504e+03   2.5303136e+03   2.5300325e+03   2.5283372e+03   2.5285028e+03   2.5288531e+03   2.5290242e+03   2.5290718e+03   2.5291016e+03   2.5291074e+03   2.5289679e+03   2.5287622e+03   2.5286951e+03   2.5286584e+03   2.5283730e+03   2.5279279e+03   2.5276863e+03   2.5274800e+03   2.5269914e+03   2.5262845e+03   2.5256646e+03   2.5250655e+03   2.5245121e+03   2.5243024e+03   2.5243146e+03   2.5244228e+03   2.5247893e+03   2.5258232e+03   2.5272823e+03   2.5286981e+03   2.5294046e+03   2.5293358e+03   2.5289605e+03   2.5284472e+03   2.5278110e+03   2.5270533e+03   2.5262493e+03   2.5253895e+03   2.5244074e+03   2.5233221e+03   2.5222193e+03   2.5210990e+03   2.5199522e+03   2.5188327e+03   2.5177720e+03   2.5167614e+03   2.5158790e+03   2.5152963e+03   2.5149773e+03   2.5147153e+03   2.5143561e+03   2.5140173e+03   2.5138093e+03   2.5135676e+03   2.5131595e+03   2.5127313e+03   2.5124104e+03   2.5120621e+03   2.5116573e+03   2.5110281e+03   2.5102117e+03   2.5097769e+03   2.5099410e+03   2.5097726e+03   2.5085714e+03   2.5074939e+03   2.5078363e+03   2.5079661e+03   2.5070084e+03   2.5062826e+03   2.5061532e+03   2.5065209e+03   2.5073196e+03   2.5085001e+03   2.5099909e+03   2.5117407e+03   2.5136042e+03   2.5152795e+03   2.5165941e+03   2.5176566e+03   2.5183625e+03   2.5184640e+03   2.5174415e+03   2.5142841e+03   2.5084447e+03   2.5013371e+03   2.4952035e+03   2.4901185e+03   2.4856332e+03   2.4821076e+03   2.4790261e+03   2.4764383e+03   2.4741012e+03   2.4721394e+03   2.4702801e+03   2.4683218e+03   2.4657810e+03   2.4620910e+03   2.4581796e+03   2.4549698e+03   2.4523471e+03   2.4501952e+03   2.4480426e+03   2.4478069e+03   2.4459060e+03   2.4448710e+03   2.4436675e+03   2.4416775e+03   2.4396388e+03   2.4378230e+03   2.4362604e+03   2.4347571e+03   2.4334033e+03   2.4305297e+03   2.4274357e+03   2.4266674e+03   2.4253283e+03   2.4205961e+03   2.4154408e+03   2.4106840e+03   2.4062906e+03   2.4034949e+03   2.4009725e+03   2.3988456e+03   2.3969215e+03   2.3962698e+03   2.3960075e+03   2.3963658e+03   2.3986628e+03
2.5242400e+03   2.5423153e+03   2.5421434e+03   2.5418090e+03   2.5416345e+03   2.5414308e+03   2.5393200e+03   2.5390978e+03   2.5389102e+03   2.5392642e+03   2.5389472e+03   2.5376014e+03   2.5382098e+03   2.5391669e+03   2.5388971e+03   2.5373561e+03   2.5375626e+03   2.5378739e+03   2.5380100e+03   2.5380497e+03   2.5380837e+03   2.5381050e+03   2.5379902e+03   2.5378066e+03   2.5377552e+03   2.5377343e+03   2.5374526e+03   2.5369665e+03   2.5366663e+03   2.5363947e+03   2.5358406e+03   2.5350608e+03   2.5343747e+03   2.5337105e+03   2.5331139e+03   2.5329276e+03   2.5329843e+03   2.5331396e+03   2.5335782e+03   2.5347477e+03   2.5363444e+03   2.5379136e+03   2.5387453e+03   2.5387013e+03   2.5383174e+03   2.5377949e+03   2.5371515e+03   2.5363777e+03   2.5355562e+03   2.5346861e+03   2.5336960e+03   2.5325926e+03   2.5314697e+03   2.5303324e+03   2.5291689e+03   2.5280288e+03   2.5269452e+03   2.5259075e+03   2.5249970e+03   2.5244116e+03   2.5241015e+03   2.5238547e+03   2.5235028e+03   2.5231597e+03   2.5229518e+03   2.5227164e+03   2.5222959e+03   2.5218377e+03   2.5214916e+03   2.5211250e+03   2.5206969e+03   2.5200720e+03   2.5192524e+03   2.5187711e+03   2.5189040e+03   2.5187664e+03   2.5175743e+03   2.5164391e+03   2.5167606e+03   2.5169019e+03   2.5160325e+03   2.5154942e+03   2.5155844e+03   2.5161785e+03   2.5171696e+03   2.5184572e+03   2.5199543e+03   2.5216515e+03   2.5235036e+03   2.5252861e+03   2.5268009e+03   2.5280985e+03   2.5290224e+03   2.5293732e+03   2.5285157e+03   2.5251465e+03   2.5186904e+03   2.5110612e+03   2.5046717e+03   2.4993219e+03   2.4944559e+03   2.4906421e+03   2.4873610e+03   2.4846886e+03   2.4823081e+03   2.4803478e+03   2.4785036e+03   2.4765707e+03   2.4740571e+03   2.4703375e+03   2.4663899e+03   2.4631696e+03   2.4605416e+03   2.4583976e+03   2.4561669e+03   2.4552841e+03   2.4533317e+03   2.4522198e+03   2.4509560e+03   2.4489470e+03   2.4469147e+03   2.4451092e+03   2.4435508e+03   2.4420504e+03   2.4406911e+03   2.4376898e+03   2.4345233e+03   2.4338659e+03   2.4326276e+03   2.4278137e+03   2.4225977e+03   2.4177847e+03   2.4133086e+03   2.4104315e+03   2.4078061e+03   2.4055745e+03   2.4035227e+03   2.4026861e+03   2.4021950e+03   2.4021163e+03   2.4052344e+03
2.5318060e+03   2.5504593e+03   2.5502466e+03   2.5499473e+03   2.5497923e+03   2.5495942e+03   2.5478611e+03   2.5476588e+03   2.5474601e+03   2.5477103e+03   2.5474158e+03   2.5462849e+03   2.5467934e+03   2.5475889e+03   2.5473320e+03   2.5459265e+03   2.5461615e+03   2.5464372e+03   2.5465467e+03   2.5465852e+03   2.5466269e+03   2.5466646e+03   2.5465759e+03   2.5464184e+03   2.5463862e+03   2.5463851e+03   2.5461125e+03   2.5455907e+03   2.5452397e+03   2.5449119e+03   2.5442987e+03   2.5434497e+03   2.5427017e+03   2.5419765e+03   2.5413357e+03   2.5411595e+03   2.5412431e+03   2.5414289e+03   2.5419193e+03   2.5431884e+03   2.5448784e+03   2.5465555e+03   2.5474858e+03   2.5474514e+03   2.5470536e+03   2.5465190e+03   2.5458654e+03   2.5450738e+03   2.5442353e+03   2.5433556e+03   2.5423582e+03   2.5412366e+03   2.5400932e+03   2.5389384e+03   2.5377579e+03   2.5365971e+03   2.5354896e+03   2.5344251e+03   2.5334891e+03   2.5329074e+03   2.5326101e+03   2.5323823e+03   2.5320446e+03   2.5317045e+03   2.5315032e+03   2.5312809e+03   2.5308564e+03   2.5303751e+03   2.5300126e+03   2.5296380e+03   2.5291956e+03   2.5285788e+03   2.5277599e+03   2.5272294e+03   2.5273127e+03   2.5271738e+03   2.5259694e+03   2.5247591e+03   2.5250216e+03   2.5251337e+03   2.5243318e+03   2.5239448e+03   2.5242074e+03   2.5249846e+03   2.5261336e+03   2.5275065e+03   2.5289949e+03   2.5306235e+03   2.5324371e+03   2.5343055e+03   2.5360365e+03   2.5376405e+03   2.5388594e+03   2.5395047e+03   2.5388454e+03   2.5352851e+03   2.5282920e+03   2.5203025e+03   2.5136903e+03   2.5080254e+03   2.5027505e+03   2.4986545e+03   2.4951938e+03   2.4924568e+03   2.4900465e+03   2.4880918e+03   2.4862617e+03   2.4843495e+03   2.4818643e+03   2.4781488e+03   2.4742055e+03   2.4709941e+03   2.4683657e+03   2.4662157e+03   2.4639519e+03   2.4627612e+03   2.4607574e+03   2.4595686e+03   2.4582444e+03   2.4562165e+03   2.4541905e+03   2.4523954e+03   2.4508412e+03   2.4493437e+03   2.4479789e+03   2.4448499e+03   2.4416109e+03   2.4410643e+03   2.4399268e+03   2.4350312e+03   2.4297547e+03   2.4248854e+03   2.4203266e+03   2.4173681e+03   2.4146397e+03   2.4123034e+03   2.4101239e+03   2.4091024e+03   2.4083824e+03   2.4078667e+03   2.4118060e+03
2.5393721e+03   2.5582199e+03   2.5579748e+03   2.5577037e+03   2.5575612e+03   2.5573678e+03   2.5560570e+03   2.5558652e+03   2.5556632e+03   2.5558357e+03   2.5555587e+03   2.5545956e+03   2.5550234e+03   2.5556953e+03   2.5554500e+03   2.5541588e+03   2.5544115e+03   2.5546574e+03   2.5547481e+03   2.5547901e+03   2.5548413e+03   2.5548952e+03   2.5548327e+03   2.5547034e+03   2.5546925e+03   2.5547135e+03   2.5544536e+03   2.5539016e+03   2.5535076e+03   2.5531325e+03   2.5524667e+03   2.5515531e+03   2.5507477e+03   2.5499664e+03   2.5492819e+03   2.5491047e+03   2.5492008e+03   2.5494020e+03   2.5499233e+03   2.5512574e+03   2.5530007e+03   2.5547453e+03   2.5557490e+03   2.5557126e+03   2.5552943e+03   2.5547438e+03   2.5540768e+03   2.5532665e+03   2.5524115e+03   2.5515225e+03   2.5505181e+03   2.5493782e+03   2.5482139e+03   2.5470399e+03   2.5458409e+03   2.5446587e+03   2.5435267e+03   2.5424343e+03   2.5414717e+03   2.5408967e+03   2.5406150e+03   2.5404063e+03   2.5400848e+03   2.5397523e+03   2.5395605e+03   2.5393536e+03   2.5389285e+03   2.5384296e+03   2.5380561e+03   2.5376790e+03   2.5372255e+03   2.5366156e+03   2.5357994e+03   2.5352320e+03   2.5352726e+03   2.5351079e+03   2.5338705e+03   2.5325883e+03   2.5327737e+03   2.5328201e+03   2.5320619e+03   2.5317854e+03   2.5321675e+03   2.5330728e+03   2.5343394e+03   2.5357809e+03   2.5372618e+03   2.5388277e+03   2.5405891e+03   2.5425073e+03   2.5444364e+03   2.5464014e+03   2.5480010e+03   2.5490009e+03   2.5485805e+03   2.5448557e+03   2.5374204e+03   2.5292121e+03   2.5223752e+03   2.5163297e+03   2.5106313e+03   2.5062700e+03   2.5026522e+03   2.4998673e+03   2.4974372e+03   2.4954898e+03   2.4936729e+03   2.4917775e+03   2.4893218e+03   2.4856391e+03   2.4817334e+03   2.4785464e+03   2.4759248e+03   2.4737631e+03   2.4714892e+03   2.4699500e+03   2.4678938e+03   2.4666125e+03   2.4652068e+03   2.4631350e+03   2.4610939e+03   2.4592580e+03   2.4576593e+03   2.4561667e+03   2.4548098e+03   2.4515610e+03   2.4482030e+03   2.4475817e+03   2.4463957e+03   2.4414183e+03   2.4360950e+03   2.4311743e+03   2.4265387e+03   2.4235167e+03   2.4207048e+03   2.4182838e+03   2.4160065e+03   2.4148454e+03   2.4139334e+03   2.4129990e+03   2.4157002e+03
2.5469382e+03   2.5659805e+03   2.5657030e+03   2.5654601e+03   2.5653302e+03   2.5651414e+03   2.5640338e+03   2.5638474e+03   2.5636467e+03   2.5637716e+03   2.5635016e+03   2.5626412e+03   2.5630257e+03   2.5636423e+03   2.5633842e+03   2.5620978e+03   2.5624161e+03   2.5626531e+03   2.5627300e+03   2.5627780e+03   2.5628412e+03   2.5629168e+03   2.5628744e+03   2.5627646e+03   2.5627811e+03   2.5628421e+03   2.5626028e+03   2.5619981e+03   2.5615754e+03   2.5611810e+03   2.5604792e+03   2.5594786e+03   2.5586272e+03   2.5578084e+03   2.5570512e+03   2.5568751e+03   2.5569832e+03   2.5572008e+03   2.5576750e+03   2.5590699e+03   2.5608501e+03   2.5626450e+03   2.5637534e+03   2.5636465e+03   2.5631928e+03   2.5626223e+03   2.5619492e+03   2.5611142e+03   2.5602437e+03   2.5593488e+03   2.5583468e+03   2.5571763e+03   2.5559888e+03   2.5547968e+03   2.5535768e+03   2.5523668e+03   2.5512095e+03   2.5501009e+03   2.5490776e+03   2.5485129e+03   2.5482584e+03   2.5480874e+03   2.5477735e+03   2.5474259e+03   2.5472498e+03   2.5470893e+03   2.5466634e+03   2.5461107e+03   2.5457368e+03   2.5453877e+03   2.5449179e+03   2.5442876e+03   2.5434842e+03   2.5427905e+03   2.5429056e+03   2.5428193e+03   2.5414926e+03   2.5400225e+03   2.5402226e+03   2.5402399e+03   2.5394611e+03   2.5392442e+03   2.5396953e+03   2.5406742e+03   2.5420212e+03   2.5435195e+03   2.5450032e+03   2.5465285e+03   2.5482439e+03   2.5501832e+03   2.5522725e+03   2.5546453e+03   2.5567184e+03   2.5581490e+03   2.5580330e+03   2.5541523e+03   2.5463180e+03   2.5379101e+03   2.5308098e+03   2.5243336e+03   2.5182119e+03   2.5136265e+03   2.5098677e+03   2.5070533e+03   2.5046064e+03   2.5026675e+03   2.5008582e+03   2.4989724e+03   2.4965507e+03   2.4929191e+03   2.4890754e+03   2.4859278e+03   2.4833184e+03   2.4811449e+03   2.4788742e+03   2.4771388e+03   2.4750301e+03   2.4736565e+03   2.4721692e+03   2.4700536e+03   2.4679972e+03   2.4661205e+03   2.4644775e+03   2.4629897e+03   2.4616406e+03   2.4582720e+03   2.4547951e+03   2.4540990e+03   2.4528645e+03   2.4478055e+03   2.4424353e+03   2.4374632e+03   2.4327509e+03   2.4296653e+03   2.4267699e+03   2.4242643e+03   2.4218891e+03   2.4205885e+03   2.4194844e+03   2.4181313e+03   2.4195945e+03
2.5545042e+03   2.5733927e+03   2.5730956e+03   2.5728810e+03   2.5727577e+03   2.5725723e+03   2.5719113e+03   2.5717275e+03   2.5715309e+03   2.5715756e+03   2.5713204e+03   2.5706457e+03   2.5709317e+03   2.5713866e+03   2.5711389e+03   2.5700596e+03   2.5703780e+03   2.5705628e+03   2.5706146e+03   2.5706699e+03   2.5707410e+03   2.5708241e+03   2.5708068e+03   2.5707288e+03   2.5707641e+03   2.5708398e+03   2.5706584e+03   2.5700225e+03   2.5695655e+03   2.5691337e+03   2.5684353e+03   2.5673755e+03   2.5664819e+03   2.5656034e+03   2.5647272e+03   2.5646156e+03   2.5647462e+03   2.5649289e+03   2.5652461e+03   2.5667691e+03   2.5685784e+03   2.5704095e+03   2.5717319e+03   2.5714371e+03   2.5709077e+03   2.5703181e+03   2.5696579e+03   2.5687889e+03   2.5678975e+03   2.5669976e+03   2.5660143e+03   2.5648010e+03   2.5635841e+03   2.5623676e+03   2.5611212e+03   2.5598866e+03   2.5587047e+03   2.5575535e+03   2.5564141e+03   2.5559299e+03   2.5557207e+03   2.5555590e+03   2.5552425e+03   2.5548966e+03   2.5547373e+03   2.5545970e+03   2.5541804e+03   2.5535967e+03   2.5532430e+03   2.5528994e+03   2.5523890e+03   2.5517332e+03   2.5509732e+03   2.5502899e+03   2.5505573e+03   2.5503495e+03   2.5488849e+03   2.5474548e+03   2.5475978e+03   2.5474048e+03   2.5466866e+03   2.5465640e+03   2.5470669e+03   2.5480821e+03   2.5494731e+03   2.5510155e+03   2.5525067e+03   2.5540097e+03   2.5556933e+03   2.5576314e+03   2.5598295e+03   2.5626649e+03   2.5652950e+03   2.5672132e+03   2.5674552e+03   2.5633183e+03   2.5550609e+03   2.5464686e+03   2.5390566e+03   2.5321327e+03   2.5256027e+03   2.5208561e+03   2.5169690e+03   2.5141427e+03   2.5116743e+03   2.5097447e+03   2.5079346e+03   2.5060504e+03   2.5036736e+03   2.5000955e+03   2.4963230e+03   2.4932319e+03   2.4906354e+03   2.4884490e+03   2.4861920e+03   2.4841173e+03   2.4819575e+03   2.4804851e+03   2.4789035e+03   2.4767312e+03   2.4746408e+03   2.4726792e+03   2.4709518e+03   2.4694716e+03   2.4681439e+03   2.4646553e+03   2.4610345e+03   2.4601449e+03   2.4587524e+03   2.4536168e+03   2.4482083e+03   2.4431875e+03   2.4384042e+03   2.4352646e+03   2.4322996e+03   2.4297217e+03   2.4272661e+03   2.4258520e+03   2.4245945e+03   2.4228853e+03   2.4234888e+03
2.5620703e+03   2.5808050e+03   2.5804881e+03   2.5803019e+03   2.5801851e+03   2.5800033e+03   2.5798114e+03   2.5796202e+03   2.5794294e+03   2.5792387e+03   2.5790480e+03   2.5789510e+03   2.5788540e+03   2.5787564e+03   2.5786589e+03   2.5786337e+03   2.5786084e+03   2.5785832e+03   2.5785580e+03   2.5786044e+03   2.5786508e+03   2.5786973e+03   2.5787437e+03   2.5787377e+03   2.5787317e+03   2.5787258e+03   2.5787198e+03   2.5781502e+03   2.5775807e+03   2.5770112e+03   2.5764416e+03   2.5754385e+03   2.5744354e+03   2.5734323e+03   2.5724292e+03   2.5725104e+03   2.5725915e+03   2.5726726e+03   2.5727538e+03   2.5745364e+03   2.5763191e+03   2.5781017e+03   2.5798844e+03   2.5792575e+03   2.5786307e+03   2.5780039e+03   2.5773770e+03   2.5764524e+03   2.5755279e+03   2.5746034e+03   2.5736788e+03   2.5724142e+03   2.5711495e+03   2.5698848e+03   2.5686202e+03   2.5673693e+03   2.5661184e+03   2.5648676e+03   2.5636167e+03   2.5633702e+03   2.5631236e+03   2.5628771e+03   2.5626306e+03   2.5623755e+03   2.5621204e+03   2.5618653e+03   2.5616102e+03   2.5611669e+03   2.5607235e+03   2.5602802e+03   2.5598368e+03   2.5594576e+03   2.5590783e+03   2.5586991e+03   2.5583198e+03   2.5573197e+03   2.5563196e+03   2.5556001e+03   2.5548806e+03   2.5540671e+03   2.5538179e+03   2.5539431e+03   2.5545601e+03   2.5556134e+03   2.5570159e+03   2.5585829e+03   2.5600701e+03   2.5615539e+03   2.5632178e+03   2.5651349e+03   2.5673730e+03   2.5707446e+03   2.5739822e+03   2.5763580e+03   2.5769555e+03   2.5723433e+03   2.5636598e+03   2.5549574e+03   2.5472011e+03   2.5398374e+03   2.5329229e+03   2.5280982e+03   2.5240829e+03   2.5212609e+03   2.5187581e+03   2.5168402e+03   2.5150201e+03   2.5131306e+03   2.5108123e+03   2.5072674e+03   2.5035648e+03   2.5005510e+03   2.4979587e+03   2.4957469e+03   2.4935350e+03   2.4910958e+03   2.4888849e+03   2.4873136e+03   2.4856379e+03   2.4834088e+03   2.4812844e+03   2.4792379e+03   2.4774260e+03   2.4759535e+03   2.4746471e+03   2.4710386e+03   2.4672738e+03   2.4661908e+03   2.4646404e+03   2.4594282e+03   2.4539814e+03   2.4489117e+03   2.4440574e+03   2.4408639e+03   2.4378294e+03   2.4351791e+03   2.4326431e+03   2.4311154e+03   2.4297047e+03   2.4276393e+03   2.4273831e+03
2.5696364e+03   2.5879352e+03   2.5876137e+03   2.5874524e+03   2.5873372e+03   2.5871575e+03   2.5869686e+03   2.5867800e+03   2.5865919e+03   2.5864039e+03   2.5862159e+03   2.5861203e+03   2.5860247e+03   2.5859283e+03   2.5858319e+03   2.5858076e+03   2.5857833e+03   2.5857590e+03   2.5857347e+03   2.5857904e+03   2.5858461e+03   2.5859018e+03   2.5859576e+03   2.5859718e+03   2.5859861e+03   2.5860004e+03   2.5860147e+03   2.5854361e+03   2.5848574e+03   2.5842788e+03   2.5837002e+03   2.5826714e+03   2.5816427e+03   2.5806140e+03   2.5795853e+03   2.5796427e+03   2.5797001e+03   2.5797576e+03   2.5798150e+03   2.5815347e+03   2.5832543e+03   2.5849740e+03   2.5866936e+03   2.5860357e+03   2.5853778e+03   2.5847199e+03   2.5840620e+03   2.5831245e+03   2.5821870e+03   2.5812494e+03   2.5803119e+03   2.5790215e+03   2.5777312e+03   2.5764408e+03   2.5751504e+03   2.5738725e+03   2.5725947e+03   2.5713168e+03   2.5700390e+03   2.5698001e+03   2.5695612e+03   2.5693224e+03   2.5690835e+03   2.5688369e+03   2.5685902e+03   2.5683436e+03   2.5680970e+03   2.5676568e+03   2.5672167e+03   2.5667765e+03   2.5663364e+03   2.5659473e+03   2.5655582e+03   2.5651691e+03   2.5647800e+03   2.5637217e+03   2.5626634e+03   2.5618817e+03   2.5611000e+03   2.5601662e+03   2.5598573e+03   2.5599307e+03   2.5604619e+03   2.5613651e+03   2.5626677e+03   2.5641853e+03   2.5656242e+03   2.5671391e+03   2.5688604e+03   2.5707865e+03   2.5730658e+03   2.5765703e+03   2.5801581e+03   2.5828933e+03   2.5837396e+03   2.5789685e+03   2.5704501e+03   2.5619191e+03   2.5539805e+03   2.5464110e+03   2.5394099e+03   2.5345366e+03   2.5304885e+03   2.5276528e+03   2.5251461e+03   2.5232206e+03   2.5213917e+03   2.5194952e+03   2.5171966e+03   2.5137933e+03   2.5102515e+03   2.5073181e+03   2.5047673e+03   2.5025496e+03   2.5003212e+03   2.4978636e+03   2.4956088e+03   2.4939477e+03   2.4921883e+03   2.4898987e+03   2.4877171e+03   2.4855575e+03   2.4836428e+03   2.4821764e+03   2.4808814e+03   2.4771508e+03   2.4732320e+03   2.4718082e+03   2.4699565e+03   2.4646762e+03   2.4591975e+03   2.4540819e+03   2.4491631e+03   2.4459257e+03   2.4428338e+03   2.4401215e+03   2.4375182e+03   2.4359008e+03   2.4343695e+03   2.4320726e+03   2.4312774e+03
2.5772025e+03   2.5950654e+03   2.5947393e+03   2.5946029e+03   2.5944893e+03   2.5943117e+03   2.5941257e+03   2.5939399e+03   2.5937545e+03   2.5935691e+03   2.5933838e+03   2.5932896e+03   2.5931955e+03   2.5931002e+03   2.5930049e+03   2.5929815e+03   2.5929581e+03   2.5929348e+03   2.5929114e+03   2.5929764e+03   2.5930414e+03   2.5931064e+03   2.5931714e+03   2.5932060e+03   2.5932405e+03   2.5932751e+03   2.5933096e+03   2.5927219e+03   2.5921341e+03   2.5915464e+03   2.5909587e+03   2.5899044e+03   2.5888500e+03   2.5877957e+03   2.5867413e+03   2.5867750e+03   2.5868088e+03   2.5868425e+03   2.5868762e+03   2.5885329e+03   2.5901895e+03   2.5918462e+03   2.5935028e+03   2.5928139e+03   2.5921250e+03   2.5914360e+03   2.5907471e+03   2.5897966e+03   2.5888461e+03   2.5878955e+03   2.5869450e+03   2.5856289e+03   2.5843128e+03   2.5829967e+03   2.5816806e+03   2.5803758e+03   2.5790709e+03   2.5777661e+03   2.5764612e+03   2.5762300e+03   2.5759988e+03   2.5757676e+03   2.5755364e+03   2.5752982e+03   2.5750601e+03   2.5748219e+03   2.5745837e+03   2.5741468e+03   2.5737099e+03   2.5732729e+03   2.5728360e+03   2.5724370e+03   2.5720381e+03   2.5716391e+03   2.5712402e+03   2.5701237e+03   2.5690072e+03   2.5681633e+03   2.5673194e+03   2.5662652e+03   2.5658967e+03   2.5659183e+03   2.5663637e+03   2.5671167e+03   2.5683196e+03   2.5697877e+03   2.5711784e+03   2.5727244e+03   2.5745030e+03   2.5764381e+03   2.5787587e+03   2.5823960e+03   2.5863340e+03   2.5894285e+03   2.5905238e+03   2.5855937e+03   2.5772405e+03   2.5688809e+03   2.5607599e+03   2.5529847e+03   2.5458969e+03   2.5409750e+03   2.5368941e+03   2.5340447e+03   2.5315341e+03   2.5296010e+03   2.5277634e+03   2.5258598e+03   2.5235809e+03   2.5203191e+03   2.5169383e+03   2.5140852e+03   2.5115759e+03   2.5093524e+03   2.5071074e+03   2.5046313e+03   2.5023326e+03   2.5005817e+03   2.4987387e+03   2.4963886e+03   2.4941499e+03   2.4918772e+03   2.4898596e+03   2.4883994e+03   2.4871158e+03   2.4832631e+03   2.4791902e+03   2.4774256e+03   2.4752725e+03   2.4699243e+03   2.4644136e+03   2.4592522e+03   2.4542687e+03   2.4509875e+03   2.4478383e+03   2.4450640e+03   2.4423933e+03   2.4406862e+03   2.4390343e+03   2.4365059e+03   2.4351717e+03
2.5847685e+03   2.6019974e+03   2.6016876e+03   2.6015644e+03   2.6014475e+03   2.6012706e+03   2.6010864e+03   2.6009023e+03   2.6007185e+03   2.6005347e+03   2.6003510e+03   2.6002578e+03   2.6001646e+03   2.6000704e+03   2.5999762e+03   2.5999528e+03   2.5999293e+03   2.5999059e+03   2.5998825e+03   2.5999504e+03   2.6000184e+03   2.6000863e+03   2.6001543e+03   2.6002009e+03   2.6002475e+03   2.6002941e+03   2.6003408e+03   2.5997530e+03   2.5991652e+03   2.5985774e+03   2.5979896e+03   2.5969248e+03   2.5958599e+03   2.5947950e+03   2.5937301e+03   2.5937375e+03   2.5937450e+03   2.5937525e+03   2.5937600e+03   2.5953445e+03   2.5969289e+03   2.5985134e+03   2.6000979e+03   2.5993711e+03   2.5986443e+03   2.5979175e+03   2.5971907e+03   2.5962237e+03   2.5952567e+03   2.5942897e+03   2.5933227e+03   2.5919760e+03   2.5906294e+03   2.5892828e+03   2.5879362e+03   2.5866020e+03   2.5852678e+03   2.5839336e+03   2.5825994e+03   2.5823729e+03   2.5821464e+03   2.5819199e+03   2.5816934e+03   2.5814617e+03   2.5812299e+03   2.5809981e+03   2.5807663e+03   2.5803341e+03   2.5799019e+03   2.5794697e+03   2.5790376e+03   2.5786327e+03   2.5782278e+03   2.5778230e+03   2.5774181e+03   2.5762586e+03   2.5750992e+03   2.5742088e+03   2.5733184e+03   2.5721435e+03   2.5717136e+03   2.5716649e+03   2.5719835e+03   2.5725408e+03   2.5736107e+03   2.5749900e+03   2.5762922e+03   2.5778642e+03   2.5797260e+03   2.5817296e+03   2.5841084e+03   2.5877206e+03   2.5917488e+03   2.5950140e+03   2.5962559e+03   2.5910840e+03   2.5828371e+03   2.5747887e+03   2.5668207e+03   2.5591026e+03   2.5521043e+03   2.5472149e+03   2.5431447e+03   2.5402833e+03   2.5377647e+03   2.5358135e+03   2.5339561e+03   2.5320424e+03   2.5297820e+03   2.5266752e+03   2.5234699e+03   2.5207050e+03   2.5182389e+03   2.5160042e+03   2.5137387e+03   2.5112468e+03   2.5089115e+03   2.5070828e+03   2.5051658e+03   2.5027471e+03   2.5004325e+03   2.4980311e+03   2.4959009e+03   2.4944398e+03   2.4931535e+03   2.4891829e+03   2.4849608e+03   2.4827603e+03   2.4802019e+03   2.4747926e+03   2.4692530e+03   2.4640471e+03   2.4590039e+03   2.4556844e+03   2.4524869e+03   2.4496570e+03   2.4469269e+03   2.4451438e+03   2.4433938e+03   2.4407290e+03   2.4390660e+03
2.5923346e+03   2.6089294e+03   2.6086359e+03   2.6085260e+03   2.6084057e+03   2.6082294e+03   2.6080471e+03   2.6078648e+03   2.6076825e+03   2.6075003e+03   2.6073182e+03   2.6072260e+03   2.6071338e+03   2.6070406e+03   2.6069475e+03   2.6069240e+03   2.6069005e+03   2.6068770e+03   2.6068535e+03   2.6069244e+03   2.6069953e+03   2.6070662e+03   2.6071371e+03   2.6071958e+03   2.6072545e+03   2.6073132e+03   2.6073719e+03   2.6067841e+03   2.6061962e+03   2.6056084e+03   2.6050206e+03   2.6039452e+03   2.6028697e+03   2.6017942e+03   2.6007188e+03   2.6007001e+03   2.6006813e+03   2.6006626e+03   2.6006438e+03   2.6021561e+03   2.6036683e+03   2.6051806e+03   2.6066929e+03   2.6059283e+03   2.6051636e+03   2.6043990e+03   2.6036344e+03   2.6026509e+03   2.6016673e+03   2.6006838e+03   2.5997003e+03   2.5983232e+03   2.5969461e+03   2.5955689e+03   2.5941918e+03   2.5928282e+03   2.5914646e+03   2.5901011e+03   2.5887375e+03   2.5885158e+03   2.5882940e+03   2.5880723e+03   2.5878505e+03   2.5876251e+03   2.5873997e+03   2.5871742e+03   2.5869488e+03   2.5865214e+03   2.5860939e+03   2.5856665e+03   2.5852391e+03   2.5848283e+03   2.5844176e+03   2.5840068e+03   2.5835960e+03   2.5823936e+03   2.5811912e+03   2.5802542e+03   2.5793173e+03   2.5780218e+03   2.5775306e+03   2.5774116e+03   2.5776034e+03   2.5779649e+03   2.5789019e+03   2.5801924e+03   2.5814061e+03   2.5830040e+03   2.5849489e+03   2.5870210e+03   2.5894582e+03   2.5930452e+03   2.5971637e+03   2.6005995e+03   2.6019880e+03   2.5965742e+03   2.5884337e+03   2.5806965e+03   2.5728815e+03   2.5652205e+03   2.5583116e+03   2.5534548e+03   2.5493953e+03   2.5465220e+03   2.5439953e+03   2.5420261e+03   2.5401489e+03   2.5382249e+03   2.5359832e+03   2.5330313e+03   2.5300015e+03   2.5273248e+03   2.5249019e+03   2.5226561e+03   2.5203700e+03   2.5178622e+03   2.5154904e+03   2.5135839e+03   2.5115930e+03   2.5091056e+03   2.5067150e+03   2.5041851e+03   2.5019422e+03   2.5004801e+03   2.4991913e+03   2.4951026e+03   2.4907314e+03   2.4880950e+03   2.4851313e+03   2.4796608e+03   2.4740923e+03   2.4688419e+03   2.4637391e+03   2.4603813e+03   2.4571354e+03   2.4542501e+03   2.4514605e+03   2.4496013e+03   2.4477533e+03   2.4449521e+03   2.4429602e+03
2.5999007e+03   2.6157451e+03   2.6154996e+03   2.6153875e+03   2.6152584e+03   2.6150809e+03   2.6148989e+03   2.6147168e+03   2.6145347e+03   2.6143526e+03   2.6141707e+03   2.6140788e+03   2.6139869e+03   2.6138944e+03   2.6138018e+03   2.6137775e+03   2.6137532e+03   2.6137289e+03   2.6137047e+03   2.6137731e+03   2.6138415e+03   2.6139099e+03   2.6139783e+03   2.6140400e+03   2.6141016e+03   2.6141633e+03   2.6142249e+03   2.6136438e+03   2.6130627e+03   2.6124816e+03   2.6119005e+03   2.6108311e+03   2.6097616e+03   2.6086922e+03   2.6076227e+03   2.6075669e+03   2.6075111e+03   2.6074552e+03   2.6073994e+03   2.6087068e+03   2.6100142e+03   2.6113216e+03   2.6126290e+03   2.6118187e+03   2.6110085e+03   2.6101982e+03   2.6093879e+03   2.6083890e+03   2.6073901e+03   2.6063912e+03   2.6053923e+03   2.6039818e+03   2.6025712e+03   2.6011607e+03   2.5997501e+03   2.5983543e+03   2.5969585e+03   2.5955627e+03   2.5941669e+03   2.5939445e+03   2.5937221e+03   2.5934998e+03   2.5932774e+03   2.5930497e+03   2.5928221e+03   2.5925944e+03   2.5923667e+03   2.5919461e+03   2.5915255e+03   2.5911048e+03   2.5906842e+03   2.5902759e+03   2.5898676e+03   2.5894593e+03   2.5890510e+03   2.5878529e+03   2.5866549e+03   2.5857222e+03   2.5847896e+03   2.5834410e+03   2.5829011e+03   2.5826823e+03   2.5827309e+03   2.5829034e+03   2.5836548e+03   2.5848093e+03   2.5859278e+03   2.5875335e+03   2.5895049e+03   2.5916552e+03   2.5941573e+03   2.5978328e+03   2.6019891e+03   2.6054515e+03   2.6069867e+03   2.6014873e+03   2.5934781e+03   2.5860022e+03   2.5784731e+03   2.5710831e+03   2.5643901e+03   2.5596048e+03   2.5555862e+03   2.5527067e+03   2.5501694e+03   2.5481701e+03   2.5462609e+03   2.5443171e+03   2.5420914e+03   2.5392798e+03   2.5364055e+03   2.5338086e+03   2.5314194e+03   2.5291588e+03   2.5268510e+03   2.5243313e+03   2.5219342e+03   2.5199635e+03   2.5179073e+03   2.5153533e+03   2.5128796e+03   2.5102279e+03   2.5078791e+03   2.5064029e+03   2.5051019e+03   2.5009119e+03   2.4963974e+03   2.4932031e+03   2.4897096e+03   2.4841865e+03   2.4785907e+03   2.4732973e+03   2.4681397e+03   2.4647494e+03   2.4614626e+03   2.4585276e+03   2.4556845e+03   2.4537604e+03   2.4518350e+03   2.4490034e+03   2.4468545e+03
2.6074668e+03   2.6225608e+03   2.6223633e+03   2.6222491e+03   2.6221112e+03   2.6219324e+03   2.6217508e+03   2.6215689e+03   2.6213869e+03   2.6212050e+03   2.6210231e+03   2.6209315e+03   2.6208399e+03   2.6207481e+03   2.6206562e+03   2.6206311e+03   2.6206060e+03   2.6205809e+03   2.6205558e+03   2.6206218e+03   2.6206877e+03   2.6207536e+03   2.6208196e+03   2.6208842e+03   2.6209488e+03   2.6210133e+03   2.6210779e+03   2.6205036e+03   2.6199292e+03   2.6193548e+03   2.6187805e+03   2.6177170e+03   2.6166536e+03   2.6155901e+03   2.6145267e+03   2.6144338e+03   2.6143409e+03   2.6142479e+03   2.6141550e+03   2.6152575e+03   2.6163601e+03   2.6174626e+03   2.6185651e+03   2.6177092e+03   2.6168533e+03   2.6159973e+03   2.6151414e+03   2.6141271e+03   2.6131128e+03   2.6120986e+03   2.6110843e+03   2.6096403e+03   2.6081964e+03   2.6067524e+03   2.6053085e+03   2.6038804e+03   2.6024524e+03   2.6010243e+03   2.5995962e+03   2.5993732e+03   2.5991502e+03   2.5989273e+03   2.5987043e+03   2.5984744e+03   2.5982445e+03   2.5980145e+03   2.5977846e+03   2.5973708e+03   2.5969569e+03   2.5965431e+03   2.5961293e+03   2.5957235e+03   2.5953176e+03   2.5949118e+03   2.5945060e+03   2.5933123e+03   2.5921186e+03   2.5911902e+03   2.5902619e+03   2.5888603e+03   2.5882717e+03   2.5879530e+03   2.5878584e+03   2.5878418e+03   2.5884078e+03   2.5894261e+03   2.5904495e+03   2.5920630e+03   2.5940608e+03   2.5962895e+03   2.5988565e+03   2.6026203e+03   2.6068144e+03   2.6103035e+03   2.6119854e+03   2.6064004e+03   2.5985225e+03   2.5913078e+03   2.5840646e+03   2.5769458e+03   2.5704686e+03   2.5657549e+03   2.5617770e+03   2.5588914e+03   2.5563434e+03   2.5543142e+03   2.5523730e+03   2.5504093e+03   2.5481997e+03   2.5455283e+03   2.5428095e+03   2.5402924e+03   2.5379368e+03   2.5356616e+03   2.5333320e+03   2.5308003e+03   2.5283780e+03   2.5263430e+03   2.5242215e+03   2.5216010e+03   2.5190443e+03   2.5162708e+03   2.5138159e+03   2.5123257e+03   2.5110124e+03   2.5067212e+03   2.5020633e+03   2.4983113e+03   2.4942879e+03   2.4887122e+03   2.4830890e+03   2.4777527e+03   2.4725404e+03   2.4691174e+03   2.4657897e+03   2.4628051e+03   2.4599085e+03   2.4579194e+03   2.4559168e+03   2.4530547e+03   2.4507488e+03
2.6150329e+03   2.6293405e+03   2.6292314e+03   2.6290958e+03   2.6289422e+03   2.6287599e+03   2.6285766e+03   2.6283930e+03   2.6282092e+03   2.6280255e+03   2.6278417e+03   2.6277494e+03   2.6276572e+03   2.6275653e+03   2.6274734e+03   2.6274469e+03   2.6274204e+03   2.6273939e+03   2.6273674e+03   2.6274266e+03   2.6274858e+03   2.6275450e+03   2.6276042e+03   2.6276635e+03   2.6277226e+03   2.6277818e+03   2.6278410e+03   2.6272798e+03   2.6267185e+03   2.6261572e+03   2.6255959e+03   2.6245602e+03   2.6235244e+03   2.6224887e+03   2.6214529e+03   2.6212962e+03   2.6211394e+03   2.6209826e+03   2.6208259e+03   2.6216182e+03   2.6224106e+03   2.6232029e+03   2.6239952e+03   2.6230975e+03   2.6221998e+03   2.6213020e+03   2.6204043e+03   2.6193783e+03   2.6183522e+03   2.6173262e+03   2.6163002e+03   2.6148215e+03   2.6133429e+03   2.6118643e+03   2.6103857e+03   2.6089219e+03   2.6074582e+03   2.6059944e+03   2.6045306e+03   2.6043003e+03   2.6040699e+03   2.6038395e+03   2.6036092e+03   2.6033709e+03   2.6031326e+03   2.6028943e+03   2.6026561e+03   2.6022492e+03   2.6018423e+03   2.6014355e+03   2.6010286e+03   2.6006258e+03   2.6002231e+03   2.5998203e+03   2.5994175e+03   2.5982577e+03   2.5970979e+03   2.5961914e+03   2.5952847e+03   2.5938687e+03   2.5932254e+03   2.5927930e+03   2.5925666e+03   2.5923735e+03   2.5927355e+03   2.5936141e+03   2.5945549e+03   2.5961607e+03   2.5981434e+03   2.6004190e+03   2.6030864e+03   2.6070750e+03   2.6113315e+03   2.6147703e+03   2.6165994e+03   2.6109803e+03   2.6031920e+03   2.5962942e+03   2.5894316e+03   2.5826773e+03   2.5764841e+03   2.5718645e+03   2.5679428e+03   2.5650534e+03   2.5624921e+03   2.5604250e+03   2.5584442e+03   2.5564591e+03   2.5542627e+03   2.5517124e+03   2.5491264e+03   2.5466762e+03   2.5443475e+03   2.5420566e+03   2.5397063e+03   2.5371667e+03   2.5347267e+03   2.5326336e+03   2.5304506e+03   2.5277621e+03   2.5251199e+03   2.5222333e+03   2.5196819e+03   2.5181709e+03   2.5168364e+03   2.5124541e+03   2.5076606e+03   2.5032743e+03   2.4986341e+03   2.4930100e+03   2.4873599e+03   2.4819815e+03   2.4767178e+03   2.4732654e+03   2.4699023e+03   2.4668719e+03   2.4639261e+03   2.4618792e+03   2.4598136e+03   2.4569938e+03   2.4546431e+03
2.6225989e+03   2.6361203e+03   2.6360995e+03   2.6359426e+03   2.6357732e+03   2.6355873e+03   2.6354024e+03   2.6352170e+03   2.6350315e+03   2.6348459e+03   2.6346603e+03   2.6345674e+03   2.6344745e+03   2.6343825e+03   2.6342906e+03   2.6342627e+03   2.6342348e+03   2.6342069e+03   2.6341790e+03   2.6342315e+03   2.6342840e+03   2.6343364e+03   2.6343889e+03   2.6344427e+03   2.6344965e+03   2.6345504e+03   2.6346042e+03   2.6340560e+03   2.6335078e+03   2.6329595e+03   2.6324113e+03   2.6314033e+03   2.6303953e+03   2.6293872e+03   2.6283792e+03   2.6281586e+03   2.6279380e+03   2.6277173e+03   2.6274967e+03   2.6279789e+03   2.6284610e+03   2.6289432e+03   2.6294254e+03   2.6284859e+03   2.6275463e+03   2.6266067e+03   2.6256672e+03   2.6246294e+03   2.6235916e+03   2.6225538e+03   2.6215160e+03   2.6200027e+03   2.6184895e+03   2.6169762e+03   2.6154629e+03   2.6139634e+03   2.6124640e+03   2.6109645e+03   2.6094650e+03   2.6092273e+03   2.6089896e+03   2.6087518e+03   2.6085141e+03   2.6082675e+03   2.6080208e+03   2.6077742e+03   2.6075275e+03   2.6071276e+03   2.6067277e+03   2.6063278e+03   2.6059279e+03   2.6055282e+03   2.6051285e+03   2.6047287e+03   2.6043290e+03   2.6032032e+03   2.6020773e+03   2.6011925e+03   2.6003076e+03   2.5988772e+03   2.5981792e+03   2.5976330e+03   2.5972749e+03   2.5969052e+03   2.5970631e+03   2.5978020e+03   2.5986603e+03   2.6002584e+03   2.6022260e+03   2.6045486e+03   2.6073162e+03   2.6115298e+03   2.6158486e+03   2.6192370e+03   2.6212135e+03   2.6155603e+03   2.6078615e+03   2.6012806e+03   2.5947987e+03   2.5884089e+03   2.5824995e+03   2.5779740e+03   2.5741085e+03   2.5712153e+03   2.5686408e+03   2.5665359e+03   2.5645153e+03   2.5625089e+03   2.5603258e+03   2.5578966e+03   2.5554432e+03   2.5530601e+03   2.5507583e+03   2.5484516e+03   2.5460807e+03   2.5435332e+03   2.5410753e+03   2.5389241e+03   2.5366796e+03   2.5339231e+03   2.5311954e+03   2.5281958e+03   2.5255479e+03   2.5240161e+03   2.5226603e+03   2.5181870e+03   2.5132579e+03   2.5082374e+03   2.5029803e+03   2.4973078e+03   2.4916308e+03   2.4862102e+03   2.4808953e+03   2.4774134e+03   2.4740148e+03   2.4709387e+03   2.4679436e+03   2.4658391e+03   2.4637104e+03   2.4609330e+03   2.4585374e+03
2.6301650e+03   2.6429321e+03   2.6430445e+03   2.6428441e+03   2.6426504e+03   2.6424583e+03   2.6422695e+03   2.6420801e+03   2.6418904e+03   2.6417007e+03   2.6415110e+03   2.6414163e+03   2.6413215e+03   2.6412285e+03   2.6411355e+03   2.6411057e+03   2.6410759e+03   2.6410460e+03   2.6410162e+03   2.6410591e+03   2.6411020e+03   2.6411448e+03   2.6411877e+03   2.6412303e+03   2.6412729e+03   2.6413155e+03   2.6413580e+03   2.6408289e+03   2.6402997e+03   2.6397705e+03   2.6392414e+03   2.6382766e+03   2.6373117e+03   2.6363470e+03   2.6353821e+03   2.6350712e+03   2.6347603e+03   2.6344493e+03   2.6341384e+03   2.6342230e+03   2.6343076e+03   2.6343922e+03   2.6344769e+03   2.6335031e+03   2.6325293e+03   2.6315556e+03   2.6305819e+03   2.6295362e+03   2.6284905e+03   2.6274449e+03   2.6263992e+03   2.6248516e+03   2.6233040e+03   2.6217563e+03   2.6202087e+03   2.6186734e+03   2.6171381e+03   2.6156028e+03   2.6140675e+03   2.6138175e+03   2.6135675e+03   2.6133175e+03   2.6130675e+03   2.6128087e+03   2.6125499e+03   2.6122911e+03   2.6120324e+03   2.6116399e+03   2.6112474e+03   2.6108549e+03   2.6104624e+03   2.6100669e+03   2.6096713e+03   2.6092757e+03   2.6088801e+03   2.6078627e+03   2.6068452e+03   2.6060439e+03   2.6052424e+03   2.6038731e+03   2.6031967e+03   2.6026134e+03   2.6021523e+03   2.6016327e+03   2.6016379e+03   2.6021978e+03   2.6029678e+03   2.6045343e+03   2.6065256e+03   2.6090298e+03   2.6119167e+03   2.6160532e+03   2.6202935e+03   2.6234911e+03   2.6254475e+03   2.6198466e+03   2.6123392e+03   2.6061404e+03   2.6000887e+03   2.5940736e+03   2.5884704e+03   2.5840814e+03   2.5802946e+03   2.5774038e+03   2.5748171e+03   2.5726696e+03   2.5706053e+03   2.5685707e+03   2.5663926e+03   2.5640463e+03   2.5616831e+03   2.5593462e+03   2.5570585e+03   2.5547358e+03   2.5523471e+03   2.5497949e+03   2.5473247e+03   2.5451267e+03   2.5428284e+03   2.5400120e+03   2.5372094e+03   2.5341163e+03   2.5313902e+03   2.5298297e+03   2.5284512e+03   2.5239061e+03   2.5188417e+03   2.5131272e+03   2.5071936e+03   2.5014796e+03   2.4957765e+03   2.4903104e+03   2.4849438e+03   2.4814354e+03   2.4780064e+03   2.4748843e+03   2.4718401e+03   2.4696852e+03   2.4675066e+03   2.4648104e+03   2.4624317e+03
2.6377311e+03   2.6497438e+03   2.6499895e+03   2.6497456e+03   2.6495276e+03   2.6493294e+03   2.6491366e+03   2.6489431e+03   2.6487494e+03   2.6485555e+03   2.6483617e+03   2.6482652e+03   2.6481686e+03   2.6480746e+03   2.6479805e+03   2.6479487e+03   2.6479169e+03   2.6478852e+03   2.6478534e+03   2.6478867e+03   2.6479199e+03   2.6479532e+03   2.6479865e+03   2.6480179e+03   2.6480492e+03   2.6480805e+03   2.6481119e+03   2.6476018e+03   2.6470916e+03   2.6465815e+03   2.6460714e+03   2.6451498e+03   2.6442283e+03   2.6433067e+03   2.6423851e+03   2.6419838e+03   2.6415826e+03   2.6411813e+03   2.6407801e+03   2.6404671e+03   2.6401542e+03   2.6398412e+03   2.6395283e+03   2.6385203e+03   2.6375124e+03   2.6365045e+03   2.6354965e+03   2.6344430e+03   2.6333895e+03   2.6323360e+03   2.6312825e+03   2.6297005e+03   2.6281185e+03   2.6265365e+03   2.6249545e+03   2.6233834e+03   2.6218122e+03   2.6202410e+03   2.6186699e+03   2.6184077e+03   2.6181454e+03   2.6178831e+03   2.6176209e+03   2.6173500e+03   2.6170791e+03   2.6168081e+03   2.6165372e+03   2.6161521e+03   2.6157671e+03   2.6153821e+03   2.6149970e+03   2.6146056e+03   2.6142141e+03   2.6138227e+03   2.6134313e+03   2.6125222e+03   2.6116132e+03   2.6108952e+03   2.6101773e+03   2.6088689e+03   2.6082142e+03   2.6075938e+03   2.6070298e+03   2.6063602e+03   2.6062126e+03   2.6065936e+03   2.6072753e+03   2.6088102e+03   2.6108251e+03   2.6135109e+03   2.6165171e+03   2.6205767e+03   2.6247385e+03   2.6277452e+03   2.6296815e+03   2.6241328e+03   2.6168169e+03   2.6110002e+03   2.6053787e+03   2.5997383e+03   2.5944414e+03   2.5901888e+03   2.5864808e+03   2.5835924e+03   2.5809935e+03   2.5788034e+03   2.5766953e+03   2.5746325e+03   2.5724593e+03   2.5701959e+03   2.5679231e+03   2.5656323e+03   2.5633588e+03   2.5610200e+03   2.5586134e+03   2.5560567e+03   2.5535741e+03   2.5513292e+03   2.5489772e+03   2.5461009e+03   2.5432233e+03   2.5400367e+03   2.5372326e+03   2.5356434e+03   2.5342421e+03   2.5296252e+03   2.5244255e+03   2.5180169e+03   2.5114069e+03   2.5056513e+03   2.4999222e+03   2.4944106e+03   2.4889922e+03   2.4854575e+03   2.4819981e+03   2.4788298e+03   2.4757366e+03   2.4735312e+03   2.4713027e+03   2.4686878e+03   2.4663260e+03
2.6452971e+03   2.6566350e+03   2.6570553e+03   2.6567466e+03   2.6564960e+03   2.6562890e+03   2.6560898e+03   2.6558899e+03   2.6556896e+03   2.6554892e+03   2.6552888e+03   2.6551892e+03   2.6550895e+03   2.6549932e+03   2.6548969e+03   2.6548627e+03   2.6548285e+03   2.6547943e+03   2.6547600e+03   2.6547825e+03   2.6548049e+03   2.6548273e+03   2.6548497e+03   2.6548675e+03   2.6548852e+03   2.6549030e+03   2.6549208e+03   2.6544333e+03   2.6539457e+03   2.6534582e+03   2.6529707e+03   2.6520953e+03   2.6512198e+03   2.6503443e+03   2.6494688e+03   2.6489552e+03   2.6484417e+03   2.6479281e+03   2.6474145e+03   2.6466385e+03   2.6458625e+03   2.6450865e+03   2.6443106e+03   2.6432778e+03   2.6422451e+03   2.6412124e+03   2.6401798e+03   2.6391212e+03   2.6380626e+03   2.6370040e+03   2.6359454e+03   2.6343299e+03   2.6327145e+03   2.6310990e+03   2.6294836e+03   2.6278776e+03   2.6262715e+03   2.6246655e+03   2.6230595e+03   2.6227819e+03   2.6225044e+03   2.6222269e+03   2.6219493e+03   2.6216641e+03   2.6213788e+03   2.6210936e+03   2.6208084e+03   2.6204299e+03   2.6200515e+03   2.6196731e+03   2.6192946e+03   2.6189100e+03   2.6185254e+03   2.6181408e+03   2.6177562e+03   2.6170159e+03   2.6162756e+03   2.6156975e+03   2.6151195e+03   2.6139465e+03   2.6133939e+03   2.6127815e+03   2.6121304e+03   2.6113490e+03   2.6110746e+03   2.6112630e+03   2.6118317e+03   2.6133060e+03   2.6153926e+03   2.6183906e+03   2.6214868e+03   2.6252254e+03   2.6291489e+03   2.6318594e+03   2.6336023e+03   2.6282036e+03   2.6212046e+03   2.6158147e+03   2.6106425e+03   2.6053832e+03   2.6004073e+03   2.5963085e+03   2.5926925e+03   2.5898094e+03   2.5871975e+03   2.5849630e+03   2.5828089e+03   2.5807148e+03   2.5785376e+03   2.5763247e+03   2.5741085e+03   2.5718469e+03   2.5695795e+03   2.5672256e+03   2.5648039e+03   2.5622441e+03   2.5597518e+03   2.5574658e+03   2.5550655e+03   2.5521363e+03   2.5491939e+03   2.5459299e+03   2.5430623e+03   2.5414401e+03   2.5400120e+03   2.5353268e+03   2.5299897e+03   2.5228566e+03   2.5155354e+03   2.5097405e+03   2.5039854e+03   2.4984268e+03   2.4929574e+03   2.4893992e+03   2.4859133e+03   2.4826989e+03   2.4795575e+03   2.4773074e+03   2.4750375e+03   2.4725260e+03   2.4702203e+03
2.6528632e+03   2.6635261e+03   2.6641211e+03   2.6637476e+03   2.6634645e+03   2.6632486e+03   2.6630431e+03   2.6628367e+03   2.6626298e+03   2.6624229e+03   2.6622159e+03   2.6621132e+03   2.6620105e+03   2.6619119e+03   2.6618133e+03   2.6617766e+03   2.6617400e+03   2.6617033e+03   2.6616667e+03   2.6616782e+03   2.6616898e+03   2.6617014e+03   2.6617129e+03   2.6617171e+03   2.6617213e+03   2.6617254e+03   2.6617296e+03   2.6612647e+03   2.6607999e+03   2.6603350e+03   2.6598701e+03   2.6590407e+03   2.6582113e+03   2.6573819e+03   2.6565525e+03   2.6559266e+03   2.6553007e+03   2.6546749e+03   2.6540490e+03   2.6528099e+03   2.6515709e+03   2.6503318e+03   2.6490928e+03   2.6480354e+03   2.6469779e+03   2.6459204e+03   2.6448630e+03   2.6437993e+03   2.6427356e+03   2.6416720e+03   2.6406083e+03   2.6389594e+03   2.6373105e+03   2.6356616e+03   2.6340127e+03   2.6323718e+03   2.6307309e+03   2.6290900e+03   2.6274491e+03   2.6271562e+03   2.6268634e+03   2.6265706e+03   2.6262777e+03   2.6259781e+03   2.6256786e+03   2.6253791e+03   2.6250795e+03   2.6247077e+03   2.6243359e+03   2.6239641e+03   2.6235923e+03   2.6232145e+03   2.6228367e+03   2.6224588e+03   2.6220810e+03   2.6215095e+03   2.6209380e+03   2.6204999e+03   2.6200617e+03   2.6190241e+03   2.6185736e+03   2.6179692e+03   2.6172311e+03   2.6163377e+03   2.6159366e+03   2.6159323e+03   2.6163880e+03   2.6178018e+03   2.6199600e+03   2.6232702e+03   2.6264564e+03   2.6298742e+03   2.6335593e+03   2.6359736e+03   2.6375231e+03   2.6322744e+03   2.6255923e+03   2.6206291e+03   2.6159062e+03   2.6110281e+03   2.6063731e+03   2.6024283e+03   2.5989042e+03   2.5960264e+03   2.5934016e+03   2.5911227e+03   2.5889225e+03   2.5867970e+03   2.5846158e+03   2.5824534e+03   2.5802940e+03   2.5780615e+03   2.5758003e+03   2.5734312e+03   2.5709945e+03   2.5684315e+03   2.5659296e+03   2.5636024e+03   2.5611538e+03   2.5581718e+03   2.5551646e+03   2.5518232e+03   2.5488920e+03   2.5472367e+03   2.5457819e+03   2.5410285e+03   2.5355540e+03   2.5276963e+03   2.5196638e+03   2.5138297e+03   2.5080486e+03   2.5024429e+03   2.4969227e+03   2.4933409e+03   2.4898285e+03   2.4865681e+03   2.4833784e+03   2.4810836e+03   2.4787723e+03   2.4763641e+03   2.4741145e+03
2.6604293e+03   2.6705273e+03   2.6713079e+03   2.6708635e+03   2.6705436e+03   2.6703167e+03   2.6701026e+03   2.6698873e+03   2.6696715e+03   2.6694556e+03   2.6692397e+03   2.6691327e+03   2.6690257e+03   2.6689236e+03   2.6688214e+03   2.6687819e+03   2.6687423e+03   2.6687028e+03   2.6686632e+03   2.6686644e+03   2.6686656e+03   2.6686668e+03   2.6686680e+03   2.6686598e+03   2.6686516e+03   2.6686435e+03   2.6686353e+03   2.6681918e+03   2.6677484e+03   2.6673049e+03   2.6668615e+03   2.6660648e+03   2.6652681e+03   2.6644714e+03   2.6636747e+03   2.6629221e+03   2.6621694e+03   2.6614168e+03   2.6606642e+03   2.6591853e+03   2.6577064e+03   2.6562275e+03   2.6547486e+03   2.6536774e+03   2.6526062e+03   2.6515350e+03   2.6504637e+03   2.6493954e+03   2.6483270e+03   2.6472587e+03   2.6461903e+03   2.6445255e+03   2.6428606e+03   2.6411958e+03   2.6395310e+03   2.6378725e+03   2.6362140e+03   2.6345556e+03   2.6328971e+03   2.6325810e+03   2.6322650e+03   2.6319489e+03   2.6316328e+03   2.6313185e+03   2.6310042e+03   2.6306899e+03   2.6303756e+03   2.6300087e+03   2.6296418e+03   2.6292749e+03   2.6289079e+03   2.6285355e+03   2.6281630e+03   2.6277905e+03   2.6274180e+03   2.6269208e+03   2.6264236e+03   2.6260522e+03   2.6256807e+03   2.6247282e+03   2.6242467e+03   2.6234867e+03   2.6225880e+03   2.6215712e+03   2.6209936e+03   2.6208189e+03   2.6211540e+03   2.6224756e+03   2.6246009e+03   2.6280168e+03   2.6312431e+03   2.6344379e+03   2.6379152e+03   2.6400557e+03   2.6413311e+03   2.6364189e+03   2.6302448e+03   2.6255669e+03   2.6211852e+03   2.6166772e+03   2.6123273e+03   2.6085476e+03   2.6051222e+03   2.6022599e+03   2.5996278e+03   2.5973083e+03   2.5950658e+03   2.5929046e+03   2.5907067e+03   2.5885580e+03   2.5864203e+03   2.5841989e+03   2.5819339e+03   2.5795502e+03   2.5770999e+03   2.5745325e+03   2.5720204e+03   2.5696601e+03   2.5671730e+03   2.5641517e+03   2.5610969e+03   2.5577025e+03   2.5547299e+03   2.5530292e+03   2.5515293e+03   2.5467163e+03   2.5411118e+03   2.5328799e+03   2.5245188e+03   2.5186490e+03   2.5128497e+03   2.5072035e+03   2.5016428e+03   2.4980387e+03   2.4945108e+03   2.4912136e+03   2.4879821e+03   2.4856380e+03   2.4832865e+03   2.4809475e+03   2.4780087e+03
2.6679954e+03   2.6775285e+03   2.6784946e+03   2.6779794e+03   2.6776227e+03   2.6773848e+03   2.6771621e+03   2.6769379e+03   2.6767132e+03   2.6764884e+03   2.6762635e+03   2.6761522e+03   2.6760409e+03   2.6759352e+03   2.6758296e+03   2.6757871e+03   2.6757447e+03   2.6757022e+03   2.6756597e+03   2.6756505e+03   2.6756413e+03   2.6756322e+03   2.6756230e+03   2.6756025e+03   2.6755820e+03   2.6755615e+03   2.6755410e+03   2.6751190e+03   2.6746969e+03   2.6742748e+03   2.6738528e+03   2.6730888e+03   2.6723248e+03   2.6715609e+03   2.6707969e+03   2.6699175e+03   2.6690381e+03   2.6681588e+03   2.6672794e+03   2.6655606e+03   2.6638419e+03   2.6621231e+03   2.6604044e+03   2.6593194e+03   2.6582344e+03   2.6571495e+03   2.6560645e+03   2.6549914e+03   2.6539184e+03   2.6528454e+03   2.6517723e+03   2.6500915e+03   2.6484108e+03   2.6467300e+03   2.6450492e+03   2.6433732e+03   2.6416971e+03   2.6400211e+03   2.6383451e+03   2.6380058e+03   2.6376665e+03   2.6373272e+03   2.6369879e+03   2.6366589e+03   2.6363299e+03   2.6360008e+03   2.6356718e+03   2.6353097e+03   2.6349477e+03   2.6345856e+03   2.6342236e+03   2.6338565e+03   2.6334893e+03   2.6331222e+03   2.6327550e+03   2.6323322e+03   2.6319093e+03   2.6316046e+03   2.6312998e+03   2.6304323e+03   2.6299198e+03   2.6290042e+03   2.6279449e+03   2.6268048e+03   2.6260507e+03   2.6257055e+03   2.6259200e+03   2.6271494e+03   2.6292418e+03   2.6327634e+03   2.6360298e+03   2.6390015e+03   2.6422711e+03   2.6441379e+03   2.6451391e+03   2.6405634e+03   2.6348973e+03   2.6305046e+03   2.6264641e+03   2.6223263e+03   2.6182816e+03   2.6146668e+03   2.6113402e+03   2.6084934e+03   2.6058540e+03   2.6034938e+03   2.6012091e+03   2.5990122e+03   2.5967976e+03   2.5946626e+03   2.5925467e+03   2.5903364e+03   2.5880675e+03   2.5856691e+03   2.5832053e+03   2.5806335e+03   2.5781112e+03   2.5757178e+03   2.5731921e+03   2.5701316e+03   2.5670292e+03   2.5635819e+03   2.5605678e+03   2.5588217e+03   2.5572766e+03   2.5524042e+03   2.5466695e+03   2.5380635e+03   2.5293739e+03   2.5234684e+03   2.5176507e+03   2.5119641e+03   2.5063629e+03   2.5027365e+03   2.4991931e+03   2.4958592e+03   2.4925857e+03   2.4901923e+03   2.4878006e+03   2.4855309e+03   2.4819030e+03
2.6755615e+03   2.6846579e+03   2.6857715e+03   2.6851989e+03   2.6848086e+03   2.6845581e+03   2.6843247e+03   2.6840896e+03   2.6838540e+03   2.6836182e+03   2.6833823e+03   2.6832657e+03   2.6831490e+03   2.6830385e+03   2.6829280e+03   2.6828823e+03   2.6828366e+03   2.6827909e+03   2.6827452e+03   2.6827278e+03   2.6827103e+03   2.6826929e+03   2.6826754e+03   2.6826465e+03   2.6826175e+03   2.6825885e+03   2.6825595e+03   2.6821516e+03   2.6817436e+03   2.6813357e+03   2.6809277e+03   2.6801614e+03   2.6793951e+03   2.6786288e+03   2.6778625e+03   2.6768742e+03   2.6758860e+03   2.6748978e+03   2.6739095e+03   2.6721243e+03   2.6703391e+03   2.6685539e+03   2.6667686e+03   2.6656757e+03   2.6645826e+03   2.6634896e+03   2.6623966e+03   2.6613105e+03   2.6602243e+03   2.6591381e+03   2.6580519e+03   2.6563669e+03   2.6546820e+03   2.6529970e+03   2.6513120e+03   2.6496350e+03   2.6479580e+03   2.6462809e+03   2.6446039e+03   2.6442389e+03   2.6438740e+03   2.6435090e+03   2.6431440e+03   2.6427962e+03   2.6424484e+03   2.6421006e+03   2.6417528e+03   2.6413985e+03   2.6410442e+03   2.6406899e+03   2.6403356e+03   2.6399824e+03   2.6396292e+03   2.6392760e+03   2.6389228e+03   2.6385099e+03   2.6380970e+03   2.6378180e+03   2.6375390e+03   2.6366517e+03   2.6359704e+03   2.6347805e+03   2.6335029e+03   2.6321833e+03   2.6312298e+03   2.6307289e+03   2.6308380e+03   2.6319461e+03   2.6338776e+03   2.6372645e+03   2.6405143e+03   2.6434181e+03   2.6465760e+03   2.6481665e+03   2.6488389e+03   2.6447716e+03   2.6397519e+03   2.6355717e+03   2.6317911e+03   2.6279954e+03   2.6242415e+03   2.6207889e+03   2.6175619e+03   2.6147356e+03   2.6120934e+03   2.6096971e+03   2.6073733e+03   2.6051373e+03   2.6028951e+03   2.6007486e+03   2.5986308e+03   2.5964191e+03   2.5941399e+03   2.5917271e+03   2.5892505e+03   2.5866726e+03   2.5841395e+03   2.5817187e+03   2.5791624e+03   2.5760733e+03   2.5729365e+03   2.5694542e+03   2.5664133e+03   2.5646114e+03   2.5630067e+03   2.5580714e+03   2.5522153e+03   2.5434879e+03   2.5347560e+03   2.5288317e+03   2.5229913e+03   2.5172704e+03   2.5116408e+03   2.5079963e+03   2.5044414e+03   2.5010774e+03   2.4977688e+03   2.4953281e+03   2.4929062e+03   2.4906381e+03   2.4857973e+03
2.6831275e+03   2.6917873e+03   2.6930485e+03   2.6924184e+03   2.6919946e+03   2.6917315e+03   2.6914873e+03   2.6912413e+03   2.6909947e+03   2.6907479e+03   2.6905011e+03   2.6903791e+03   2.6902571e+03   2.6901417e+03   2.6900264e+03   2.6899775e+03   2.6899286e+03   2.6898797e+03   2.6898308e+03   2.6898051e+03   2.6897793e+03   2.6897536e+03   2.6897279e+03   2.6896905e+03   2.6896530e+03   2.6896156e+03   2.6895781e+03   2.6891842e+03   2.6887904e+03   2.6883965e+03   2.6880026e+03   2.6872340e+03   2.6864653e+03   2.6856967e+03   2.6849281e+03   2.6838310e+03   2.6827339e+03   2.6816367e+03   2.6805396e+03   2.6786879e+03   2.6768363e+03   2.6749846e+03   2.6731329e+03   2.6720319e+03   2.6709308e+03   2.6698298e+03   2.6687288e+03   2.6676295e+03   2.6665301e+03   2.6654308e+03   2.6643315e+03   2.6626424e+03   2.6609532e+03   2.6592640e+03   2.6575749e+03   2.6558969e+03   2.6542188e+03   2.6525408e+03   2.6508627e+03   2.6504721e+03   2.6500815e+03   2.6496908e+03   2.6493002e+03   2.6489336e+03   2.6485670e+03   2.6482003e+03   2.6478337e+03   2.6474872e+03   2.6471407e+03   2.6467941e+03   2.6464476e+03   2.6461084e+03   2.6457692e+03   2.6454299e+03   2.6450907e+03   2.6446877e+03   2.6442847e+03   2.6440315e+03   2.6437783e+03   2.6428712e+03   2.6420209e+03   2.6405567e+03   2.6390609e+03   2.6375617e+03   2.6364089e+03   2.6357524e+03   2.6357560e+03   2.6367428e+03   2.6385133e+03   2.6417656e+03   2.6449987e+03   2.6478348e+03   2.6508810e+03   2.6521950e+03   2.6525386e+03   2.6489798e+03   2.6446066e+03   2.6406388e+03   2.6371181e+03   2.6336645e+03   2.6302015e+03   2.6269110e+03   2.6237835e+03   2.6209779e+03   2.6183329e+03   2.6159004e+03   2.6135374e+03   2.6112625e+03   2.6089926e+03   2.6068346e+03   2.6047148e+03   2.6025018e+03   2.6002122e+03   2.5977851e+03   2.5952958e+03   2.5927118e+03   2.5901678e+03   2.5877196e+03   2.5851328e+03   2.5820150e+03   2.5788439e+03   2.5753266e+03   2.5722588e+03   2.5704010e+03   2.5687368e+03   2.5637385e+03   2.5577610e+03   2.5489123e+03   2.5401381e+03   2.5341950e+03   2.5283319e+03   2.5225768e+03   2.5169187e+03   2.5132560e+03   2.5096896e+03   2.5062956e+03   2.5029518e+03   2.5004639e+03   2.4980118e+03   2.4957454e+03   2.4896916e+03
2.6906936e+03   2.6990530e+03   2.7003644e+03   2.6997096e+03   2.6992642e+03   2.6989875e+03   2.6987307e+03   2.6984721e+03   2.6982129e+03   2.6979535e+03   2.6976941e+03   2.6975660e+03   2.6974378e+03   2.6973164e+03   2.6971951e+03   2.6971429e+03   2.6970906e+03   2.6970383e+03   2.6969861e+03   2.6969553e+03   2.6969244e+03   2.6968936e+03   2.6968628e+03   2.6968217e+03   2.6967806e+03   2.6967395e+03   2.6966984e+03   2.6963070e+03   2.6959155e+03   2.6955240e+03   2.6951325e+03   2.6943301e+03   2.6935276e+03   2.6927252e+03   2.6919228e+03   2.6907542e+03   2.6895856e+03   2.6884170e+03   2.6872484e+03   2.6854319e+03   2.6836154e+03   2.6817988e+03   2.6799823e+03   2.6788698e+03   2.6777572e+03   2.6766447e+03   2.6755322e+03   2.6744073e+03   2.6732824e+03   2.6721576e+03   2.6710327e+03   2.6693319e+03   2.6676311e+03   2.6659303e+03   2.6642295e+03   2.6625428e+03   2.6608561e+03   2.6591693e+03   2.6574826e+03   2.6570774e+03   2.6566722e+03   2.6562670e+03   2.6558619e+03   2.6554853e+03   2.6551087e+03   2.6547321e+03   2.6543555e+03   2.6540256e+03   2.6536958e+03   2.6533660e+03   2.6530361e+03   2.6527190e+03   2.6524019e+03   2.6520849e+03   2.6517677e+03   2.6513708e+03   2.6509738e+03   2.6507141e+03   2.6504543e+03   2.6495077e+03   2.6484761e+03   2.6467709e+03   2.6450642e+03   2.6433711e+03   2.6420704e+03   2.6413030e+03   2.6412317e+03   2.6421026e+03   2.6437647e+03   2.6468639e+03   2.6500813e+03   2.6529446e+03   2.6559365e+03   2.6569160e+03   2.6568676e+03   2.6536418e+03   2.6496510e+03   2.6458248e+03   2.6425467e+03   2.6394582e+03   2.6362676e+03   2.6330894e+03   2.6300363e+03   2.6272457e+03   2.6245967e+03   2.6221351e+03   2.6197360e+03   2.6174209e+03   2.6151214e+03   2.6129174e+03   2.6107558e+03   2.6085232e+03   2.6062103e+03   2.6037661e+03   2.6012629e+03   2.5986698e+03   2.5961130e+03   2.5936443e+03   2.5910363e+03   2.5879020e+03   2.5847141e+03   2.5811797e+03   2.5780919e+03   2.5761647e+03   2.5744207e+03   2.5693573e+03   2.5633034e+03   2.5545242e+03   2.5458686e+03   2.5399059e+03   2.5340167e+03   2.5282353e+03   2.5225596e+03   2.5188879e+03   2.5153170e+03   2.5119025e+03   2.5085335e+03   2.5060098e+03   2.5035296e+03   2.5012647e+03   2.4960198e+03
2.6982597e+03   2.7063188e+03   2.7076803e+03   2.7070007e+03   2.7065338e+03   2.7062435e+03   2.7059741e+03   2.7057029e+03   2.7054311e+03   2.7051591e+03   2.7048872e+03   2.7047528e+03   2.7046185e+03   2.7044911e+03   2.7043638e+03   2.7043082e+03   2.7042526e+03   2.7041970e+03   2.7041414e+03   2.7041055e+03   2.7040696e+03   2.7040336e+03   2.7039977e+03   2.7039530e+03   2.7039082e+03   2.7038635e+03   2.7038188e+03   2.7034297e+03   2.7030406e+03   2.7026516e+03   2.7022625e+03   2.7014262e+03   2.7005899e+03   2.6997537e+03   2.6989174e+03   2.6976773e+03   2.6964373e+03   2.6951973e+03   2.6939572e+03   2.6921758e+03   2.6903944e+03   2.6886131e+03   2.6868317e+03   2.6857076e+03   2.6845836e+03   2.6834596e+03   2.6823355e+03   2.6811851e+03   2.6800347e+03   2.6788843e+03   2.6777339e+03   2.6760215e+03   2.6743090e+03   2.6725966e+03   2.6708841e+03   2.6691887e+03   2.6674933e+03   2.6657979e+03   2.6641025e+03   2.6636827e+03   2.6632630e+03   2.6628432e+03   2.6624235e+03   2.6620369e+03   2.6616503e+03   2.6612638e+03   2.6608772e+03   2.6605641e+03   2.6602509e+03   2.6599378e+03   2.6596247e+03   2.6593297e+03   2.6590347e+03   2.6587398e+03   2.6584448e+03   2.6580538e+03   2.6576628e+03   2.6573966e+03   2.6571304e+03   2.6561441e+03   2.6549313e+03   2.6529851e+03   2.6510675e+03   2.6491806e+03   2.6477319e+03   2.6468537e+03   2.6467075e+03   2.6474623e+03   2.6490160e+03   2.6519621e+03   2.6551638e+03   2.6580544e+03   2.6609919e+03   2.6616369e+03   2.6611966e+03   2.6583039e+03   2.6546955e+03   2.6510108e+03   2.6479753e+03   2.6452520e+03   2.6423338e+03   2.6392679e+03   2.6362890e+03   2.6335135e+03   2.6308606e+03   2.6283698e+03   2.6259347e+03   2.6235794e+03   2.6212502e+03   2.6190002e+03   2.6167967e+03   2.6145446e+03   2.6122084e+03   2.6097471e+03   2.6072300e+03   2.6046277e+03   2.6020583e+03   2.5995690e+03   2.5969398e+03   2.5937891e+03   2.5905843e+03   2.5870327e+03   2.5839251e+03   2.5819284e+03   2.5801046e+03   2.5749760e+03   2.5688457e+03   2.5601362e+03   2.5515991e+03   2.5456167e+03   2.5397016e+03   2.5338938e+03   2.5282005e+03   2.5245198e+03   2.5209443e+03   2.5175094e+03   2.5141152e+03   2.5115557e+03   2.5090473e+03   2.5067839e+03   2.5023480e+03
2.7058257e+03   2.7136977e+03   2.7149794e+03   2.7143194e+03   2.7138489e+03   2.7135445e+03   2.7132607e+03   2.7129757e+03   2.7126901e+03   2.7124045e+03   2.7121190e+03   2.7119778e+03   2.7118365e+03   2.7117023e+03   2.7115680e+03   2.7115091e+03   2.7114502e+03   2.7113913e+03   2.7113324e+03   2.7112948e+03   2.7112572e+03   2.7112196e+03   2.7111820e+03   2.7111379e+03   2.7110939e+03   2.7110498e+03   2.7110057e+03   2.7106077e+03   2.7102096e+03   2.7098115e+03   2.7094134e+03   2.7085234e+03   2.7076335e+03   2.7067436e+03   2.7058536e+03   2.7045779e+03   2.7033022e+03   2.7020265e+03   2.7007508e+03   2.6990687e+03   2.6973866e+03   2.6957045e+03   2.6940224e+03   2.6928810e+03   2.6917395e+03   2.6905980e+03   2.6894566e+03   2.6882726e+03   2.6870887e+03   2.6859048e+03   2.6847208e+03   2.6829917e+03   2.6812625e+03   2.6795334e+03   2.6778043e+03   2.6760942e+03   2.6743841e+03   2.6726741e+03   2.6709641e+03   2.6705404e+03   2.6701168e+03   2.6696931e+03   2.6692694e+03   2.6688841e+03   2.6684987e+03   2.6681133e+03   2.6677279e+03   2.6674351e+03   2.6671423e+03   2.6668494e+03   2.6665566e+03   2.6662842e+03   2.6660118e+03   2.6657394e+03   2.6654670e+03   2.6650634e+03   2.6646598e+03   2.6643578e+03   2.6640557e+03   2.6630460e+03   2.6617244e+03   2.6596393e+03   2.6575531e+03   2.6555131e+03   2.6539451e+03   2.6529585e+03   2.6527177e+03   2.6534139e+03   2.6549499e+03   2.6577735e+03   2.6609082e+03   2.6637713e+03   2.6665835e+03   2.6668968e+03   2.6660648e+03   2.6633425e+03   2.6598859e+03   2.6562879e+03   2.6535163e+03   2.6511488e+03   2.6484686e+03   2.6454824e+03   2.6425585e+03   2.6397946e+03   2.6371394e+03   2.6346249e+03   2.6321575e+03   2.6297657e+03   2.6274056e+03   2.6250824e+03   2.6228064e+03   2.6205207e+03   2.6181526e+03   2.6156726e+03   2.6131408e+03   2.6105273e+03   2.6079444e+03   2.6054398e+03   2.6027966e+03   2.5996393e+03   2.5964298e+03   2.5928700e+03   2.5897454e+03   2.5876713e+03   2.5857582e+03   2.5805756e+03   2.5744135e+03   2.5658969e+03   2.5575678e+03   2.5515644e+03   2.5456223e+03   2.5397929e+03   2.5340879e+03   2.5304059e+03   2.5268318e+03   2.5233834e+03   2.5199717e+03   2.5173866e+03   2.5148518e+03   2.5126108e+03   2.5086762e+03
2.7133918e+03   2.7210765e+03   2.7222784e+03   2.7216382e+03   2.7211639e+03   2.7208455e+03   2.7205474e+03   2.7202485e+03   2.7199492e+03   2.7196499e+03   2.7193507e+03   2.7192027e+03   2.7190546e+03   2.7189134e+03   2.7187722e+03   2.7187100e+03   2.7186478e+03   2.7185856e+03   2.7185234e+03   2.7184841e+03   2.7184448e+03   2.7184056e+03   2.7183663e+03   2.7183229e+03   2.7182795e+03   2.7182361e+03   2.7181927e+03   2.7177856e+03   2.7173785e+03   2.7169714e+03   2.7165643e+03   2.7156207e+03   2.7146770e+03   2.7137334e+03   2.7127898e+03   2.7114785e+03   2.7101671e+03   2.7088558e+03   2.7075444e+03   2.7059616e+03   2.7043787e+03   2.7027959e+03   2.7012131e+03   2.7000543e+03   2.6988954e+03   2.6977365e+03   2.6965777e+03   2.6953602e+03   2.6941427e+03   2.6929252e+03   2.6917077e+03   2.6899619e+03   2.6882160e+03   2.6864702e+03   2.6847244e+03   2.6829997e+03   2.6812750e+03   2.6795503e+03   2.6778256e+03   2.6773981e+03   2.6769705e+03   2.6765430e+03   2.6761154e+03   2.6757312e+03   2.6753471e+03   2.6749629e+03   2.6745787e+03   2.6743061e+03   2.6740336e+03   2.6737611e+03   2.6734885e+03   2.6732387e+03   2.6729888e+03   2.6727390e+03   2.6724892e+03   2.6720730e+03   2.6716568e+03   2.6713189e+03   2.6709810e+03   2.6699480e+03   2.6685174e+03   2.6662936e+03   2.6640388e+03   2.6618457e+03   2.6601583e+03   2.6590632e+03   2.6587278e+03   2.6593655e+03   2.6608838e+03   2.6635850e+03   2.6666526e+03   2.6694882e+03   2.6721750e+03   2.6721567e+03   2.6709329e+03   2.6683810e+03   2.6650763e+03   2.6615651e+03   2.6590573e+03   2.6570456e+03   2.6546034e+03   2.6516970e+03   2.6488279e+03   2.6460758e+03   2.6434183e+03   2.6408801e+03   2.6383803e+03   2.6359519e+03   2.6335610e+03   2.6311646e+03   2.6288161e+03   2.6264968e+03   2.6240969e+03   2.6215980e+03   2.6190517e+03   2.6164269e+03   2.6138306e+03   2.6113106e+03   2.6086534e+03   2.6054896e+03   2.6022752e+03   2.5987073e+03   2.5955656e+03   2.5934142e+03   2.5914119e+03   2.5861753e+03   2.5799812e+03   2.5716576e+03   2.5635364e+03   2.5575121e+03   2.5515430e+03   2.5456920e+03   2.5399753e+03   2.5362920e+03   2.5327192e+03   2.5292573e+03   2.5258282e+03   2.5232176e+03   2.5206563e+03   2.5184377e+03   2.5150044e+03
2.7209579e+03   2.7285122e+03   2.7295221e+03   2.7289372e+03   2.7284760e+03   2.7281433e+03   2.7278294e+03   2.7275158e+03   2.7272022e+03   2.7268884e+03   2.7265750e+03   2.7264196e+03   2.7262643e+03   2.7261154e+03   2.7259664e+03   2.7259011e+03   2.7258357e+03   2.7257703e+03   2.7257049e+03   2.7256667e+03   2.7256286e+03   2.7255904e+03   2.7255523e+03   2.7255125e+03   2.7254728e+03   2.7254330e+03   2.7253933e+03   2.7249693e+03   2.7245452e+03   2.7241211e+03   2.7236971e+03   2.7226906e+03   2.7216841e+03   2.7206776e+03   2.7196711e+03   2.7183517e+03   2.7170323e+03   2.7157129e+03   2.7143935e+03   2.7129084e+03   2.7114232e+03   2.7099381e+03   2.7084529e+03   2.7072710e+03   2.7060891e+03   2.7049073e+03   2.7037254e+03   2.7024768e+03   2.7012282e+03   2.6999796e+03   2.6987310e+03   2.6969840e+03   2.6952369e+03   2.6934899e+03   2.6917429e+03   2.6900230e+03   2.6883032e+03   2.6865834e+03   2.6848636e+03   2.6844479e+03   2.6840322e+03   2.6836165e+03   2.6832009e+03   2.6828364e+03   2.6824719e+03   2.6821075e+03   2.6817430e+03   2.6814866e+03   2.6812303e+03   2.6809739e+03   2.6807176e+03   2.6804637e+03   2.6802099e+03   2.6799560e+03   2.6797022e+03   2.6791665e+03   2.6786308e+03   2.6782242e+03   2.6778175e+03   2.6767904e+03   2.6753539e+03   2.6731134e+03   2.6707740e+03   2.6684716e+03   2.6666603e+03   2.6654253e+03   2.6650159e+03   2.6656604e+03   2.6671971e+03   2.6698298e+03   2.6728336e+03   2.6756258e+03   2.6781495e+03   2.6778758e+03   2.6763800e+03   2.6739425e+03   2.6707558e+03   2.6673305e+03   2.6649590e+03   2.6630557e+03   2.6606987e+03   2.6578630e+03   2.6550336e+03   2.6522937e+03   2.6496366e+03   2.6470824e+03   2.6445597e+03   2.6421036e+03   2.6396824e+03   2.6372024e+03   2.6347652e+03   2.6323974e+03   2.6299599e+03   2.6274423e+03   2.6248812e+03   2.6222436e+03   2.6196330e+03   2.6171020e+03   2.6144376e+03   2.6112739e+03   2.6080624e+03   2.6044910e+03   2.6013301e+03   2.5991013e+03   2.5970106e+03   2.5917284e+03   2.5855371e+03   2.5774578e+03   2.5695642e+03   2.5635234e+03   2.5575337e+03   2.5516708e+03   2.5459532e+03   2.5422820e+03   2.5387197e+03   2.5352565e+03   2.5318268e+03   2.5292002e+03   2.5266131e+03   2.5244291e+03   2.5213326e+03
2.7285240e+03   2.7359479e+03   2.7367659e+03   2.7362361e+03   2.7357881e+03   2.7354412e+03   2.7351114e+03   2.7347831e+03   2.7344551e+03   2.7341270e+03   2.7337992e+03   2.7336366e+03   2.7334739e+03   2.7333173e+03   2.7331607e+03   2.7330921e+03   2.7330235e+03   2.7329550e+03   2.7328864e+03   2.7328493e+03   2.7328123e+03   2.7327752e+03   2.7327382e+03   2.7327021e+03   2.7326660e+03   2.7326300e+03   2.7325939e+03   2.7321529e+03   2.7317119e+03   2.7312709e+03   2.7308299e+03   2.7297605e+03   2.7286912e+03   2.7276218e+03   2.7265524e+03   2.7252250e+03   2.7238975e+03   2.7225701e+03   2.7212427e+03   2.7198552e+03   2.7184677e+03   2.7170802e+03   2.7156927e+03   2.7144878e+03   2.7132829e+03   2.7120780e+03   2.7108731e+03   2.7095934e+03   2.7083137e+03   2.7070340e+03   2.7057543e+03   2.7040060e+03   2.7022578e+03   2.7005096e+03   2.6987613e+03   2.6970464e+03   2.6953315e+03   2.6936165e+03   2.6919016e+03   2.6914978e+03   2.6910940e+03   2.6906901e+03   2.6902863e+03   2.6899416e+03   2.6895968e+03   2.6892521e+03   2.6889073e+03   2.6886671e+03   2.6884270e+03   2.6881868e+03   2.6879466e+03   2.6876887e+03   2.6874309e+03   2.6871731e+03   2.6869152e+03   2.6862600e+03   2.6856048e+03   2.6851294e+03   2.6846540e+03   2.6836328e+03   2.6821904e+03   2.6799333e+03   2.6775093e+03   2.6750975e+03   2.6731623e+03   2.6717873e+03   2.6713041e+03   2.6719553e+03   2.6735105e+03   2.6760746e+03   2.6790145e+03   2.6817633e+03   2.6841240e+03   2.6835949e+03   2.6818270e+03   2.6795039e+03   2.6764352e+03   2.6730960e+03   2.6708606e+03   2.6690658e+03   2.6667940e+03   2.6640290e+03   2.6612392e+03   2.6585115e+03   2.6558549e+03   2.6532848e+03   2.6507391e+03   2.6482553e+03   2.6458038e+03   2.6432402e+03   2.6407143e+03   2.6382980e+03   2.6358228e+03   2.6332865e+03   2.6307107e+03   2.6280604e+03   2.6254355e+03   2.6228935e+03   2.6202217e+03   2.6170581e+03   2.6138496e+03   2.6102747e+03   2.6070946e+03   2.6047883e+03   2.6026093e+03   2.5972816e+03   2.5910930e+03   2.5832580e+03   2.5755921e+03   2.5695347e+03   2.5635243e+03   2.5576497e+03   2.5519310e+03   2.5482720e+03   2.5447201e+03   2.5412557e+03   2.5378253e+03   2.5351829e+03   2.5325699e+03   2.5304206e+03   2.5276609e+03
2.7360900e+03   2.7433548e+03   2.7439251e+03   2.7434692e+03   2.7430437e+03   2.7426822e+03   2.7423356e+03   2.7419921e+03   2.7416493e+03   2.7413065e+03   2.7409639e+03   2.7407937e+03   2.7406235e+03   2.7404586e+03   2.7402938e+03   2.7402220e+03   2.7401502e+03   2.7400785e+03   2.7400067e+03   2.7399722e+03   2.7399377e+03   2.7399032e+03   2.7398687e+03   2.7398378e+03   2.7398070e+03   2.7397761e+03   2.7397452e+03   2.7392841e+03   2.7388230e+03   2.7383618e+03   2.7379007e+03   2.7367689e+03   2.7356372e+03   2.7345054e+03   2.7333736e+03   2.7320485e+03   2.7307233e+03   2.7293982e+03   2.7280730e+03   2.7267808e+03   2.7254885e+03   2.7241962e+03   2.7229039e+03   2.7216768e+03   2.7204497e+03   2.7192226e+03   2.7179955e+03   2.7166909e+03   2.7153864e+03   2.7140818e+03   2.7127772e+03   2.7110391e+03   2.7093011e+03   2.7075630e+03   2.7058249e+03   2.7041292e+03   2.7024336e+03   2.7007379e+03   2.6990422e+03   2.6986624e+03   2.6982825e+03   2.6979026e+03   2.6975228e+03   2.6972083e+03   2.6968938e+03   2.6965794e+03   2.6962649e+03   2.6960312e+03   2.6957975e+03   2.6955638e+03   2.6953301e+03   2.6950451e+03   2.6947602e+03   2.6944752e+03   2.6941902e+03   2.6933576e+03   2.6925250e+03   2.6919572e+03   2.6913894e+03   2.6903819e+03   2.6889875e+03   2.6867689e+03   2.6843024e+03   2.6817852e+03   2.6797159e+03   2.6782293e+03   2.6777211e+03   2.6783940e+03   2.6799716e+03   2.6825287e+03   2.6854734e+03   2.6881898e+03   2.6903873e+03   2.6896553e+03   2.6877094e+03   2.6854895e+03   2.6825517e+03   2.6792434e+03   2.6769794e+03   2.6751388e+03   2.6728518e+03   2.6701435e+03   2.6673916e+03   2.6646767e+03   2.6620230e+03   2.6594427e+03   2.6568810e+03   2.6543734e+03   2.6518910e+03   2.6492377e+03   2.6466143e+03   2.6441426e+03   2.6416265e+03   2.6390717e+03   2.6364813e+03   2.6338174e+03   2.6311781e+03   2.6286286e+03   2.6259541e+03   2.6227949e+03   2.6195931e+03   2.6160153e+03   2.6128150e+03   2.6104349e+03   2.6081743e+03   2.6028139e+03   2.5966492e+03   2.5890774e+03   2.5816435e+03   2.5755764e+03   2.5695534e+03   2.5636741e+03   2.5579605e+03   2.5543215e+03   2.5507866e+03   2.5473304e+03   2.5439098e+03   2.5412553e+03   2.5386206e+03   2.5365122e+03   2.5339891e+03
2.7436561e+03   2.7507617e+03   2.7510843e+03   2.7507023e+03   2.7502992e+03   2.7499232e+03   2.7495598e+03   2.7492011e+03   2.7488435e+03   2.7484860e+03   2.7481286e+03   2.7479508e+03   2.7477730e+03   2.7475999e+03   2.7474269e+03   2.7473519e+03   2.7472769e+03   2.7472020e+03   2.7471270e+03   2.7470950e+03   2.7470631e+03   2.7470311e+03   2.7469992e+03   2.7469736e+03   2.7469479e+03   2.7469223e+03   2.7468966e+03   2.7464153e+03   2.7459340e+03   2.7454528e+03   2.7449715e+03   2.7437773e+03   2.7425832e+03   2.7413890e+03   2.7401948e+03   2.7388720e+03   2.7375491e+03   2.7362263e+03   2.7349034e+03   2.7337063e+03   2.7325093e+03   2.7313122e+03   2.7301151e+03   2.7288658e+03   2.7276165e+03   2.7263672e+03   2.7251179e+03   2.7237885e+03   2.7224590e+03   2.7211295e+03   2.7198001e+03   2.7180722e+03   2.7163443e+03   2.7146164e+03   2.7128885e+03   2.7112121e+03   2.7095357e+03   2.7078593e+03   2.7061829e+03   2.7058270e+03   2.7054711e+03   2.7051151e+03   2.7047592e+03   2.7044750e+03   2.7041908e+03   2.7039067e+03   2.7036225e+03   2.7033952e+03   2.7031680e+03   2.7029408e+03   2.7027135e+03   2.7024014e+03   2.7020894e+03   2.7017773e+03   2.7014653e+03   2.7004552e+03   2.6994452e+03   2.6987850e+03   2.6981248e+03   2.6971309e+03   2.6957846e+03   2.6936044e+03   2.6910955e+03   2.6884730e+03   2.6862695e+03   2.6846712e+03   2.6841381e+03   2.6848327e+03   2.6864327e+03   2.6889827e+03   2.6919323e+03   2.6946162e+03   2.6966506e+03   2.6957157e+03   2.6935917e+03   2.6914750e+03   2.6886683e+03   2.6853909e+03   2.6830983e+03   2.6812117e+03   2.6789096e+03   2.6762580e+03   2.6735440e+03   2.6708419e+03   2.6681911e+03   2.6656006e+03   2.6630230e+03   2.6604915e+03   2.6579782e+03   2.6552351e+03   2.6525142e+03   2.6499873e+03   2.6474303e+03   2.6448569e+03   2.6422519e+03   2.6395744e+03   2.6369207e+03   2.6343637e+03   2.6316865e+03   2.6285317e+03   2.6253367e+03   2.6217560e+03   2.6185354e+03   2.6160816e+03   2.6137392e+03   2.6083463e+03   2.6022055e+03   2.5948969e+03   2.5876948e+03   2.5816181e+03   2.5755824e+03   2.5696986e+03   2.5639901e+03   2.5603710e+03   2.5568531e+03   2.5534050e+03   2.5499943e+03   2.5473277e+03   2.5446713e+03   2.5426038e+03   2.5403173e+03
2.7512222e+03   2.7580606e+03   2.7581498e+03   2.7578275e+03   2.7574443e+03   2.7570533e+03   2.7566727e+03   2.7562985e+03   2.7559259e+03   2.7555535e+03   2.7551812e+03   2.7549955e+03   2.7548099e+03   2.7546282e+03   2.7544465e+03   2.7543681e+03   2.7542896e+03   2.7542112e+03   2.7541328e+03   2.7541031e+03   2.7540735e+03   2.7540439e+03   2.7540143e+03   2.7539939e+03   2.7539736e+03   2.7539533e+03   2.7539330e+03   2.7534330e+03   2.7529331e+03   2.7524332e+03   2.7519333e+03   2.7506815e+03   2.7494297e+03   2.7481780e+03   2.7469262e+03   2.7456077e+03   2.7442892e+03   2.7429706e+03   2.7416521e+03   2.7405416e+03   2.7394311e+03   2.7383206e+03   2.7372101e+03   2.7359414e+03   2.7346728e+03   2.7334041e+03   2.7321355e+03   2.7307891e+03   2.7294427e+03   2.7280963e+03   2.7267499e+03   2.7250394e+03   2.7233288e+03   2.7216183e+03   2.7199078e+03   2.7182592e+03   2.7166107e+03   2.7149621e+03   2.7133136e+03   2.7129791e+03   2.7126447e+03   2.7123102e+03   2.7119758e+03   2.7117146e+03   2.7114534e+03   2.7111923e+03   2.7109311e+03   2.7106960e+03   2.7104610e+03   2.7102260e+03   2.7099909e+03   2.7096426e+03   2.7092942e+03   2.7089459e+03   2.7085975e+03   2.7074324e+03   2.7062673e+03   2.7055354e+03   2.7048034e+03   2.7037293e+03   2.7024282e+03   2.7003292e+03   2.6978128e+03   2.6951114e+03   2.6927968e+03   2.6911204e+03   2.6905297e+03   2.6912121e+03   2.6928515e+03   2.6954374e+03   2.6985232e+03   2.7012416e+03   2.7031077e+03   2.7019795e+03   2.6997481e+03   2.6976239e+03   2.6947850e+03   2.6914944e+03   2.6891951e+03   2.6872438e+03   2.6848987e+03   2.6822753e+03   2.6795914e+03   2.6769032e+03   2.6742554e+03   2.6716590e+03   2.6690709e+03   2.6665199e+03   2.6639757e+03   2.6611438e+03   2.6583269e+03   2.6557443e+03   2.6531469e+03   2.6505545e+03   2.6479346e+03   2.6452429e+03   2.6425749e+03   2.6400133e+03   2.6373367e+03   2.6341861e+03   2.6309968e+03   2.6274116e+03   2.6241691e+03   2.6216531e+03   2.6192447e+03   2.6138247e+03   2.6077112e+03   2.6006191e+03   2.5936011e+03   2.5875183e+03   2.5814727e+03   2.5755891e+03   2.5698869e+03   2.5662819e+03   2.5627739e+03   2.5593357e+03   2.5559425e+03   2.5532679e+03   2.5505862e+03   2.5485814e+03   2.5466455e+03
2.7587883e+03   2.7653596e+03   2.7652152e+03   2.7649526e+03   2.7645893e+03   2.7641834e+03   2.7637856e+03   2.7633959e+03   2.7630083e+03   2.7626210e+03   2.7622337e+03   2.7620403e+03   2.7618468e+03   2.7616564e+03   2.7614661e+03   2.7613842e+03   2.7613023e+03   2.7612204e+03   2.7611385e+03   2.7611112e+03   2.7610839e+03   2.7610566e+03   2.7610293e+03   2.7610143e+03   2.7609993e+03   2.7609843e+03   2.7609693e+03   2.7604507e+03   2.7599322e+03   2.7594137e+03   2.7588951e+03   2.7575857e+03   2.7562764e+03   2.7549670e+03   2.7536576e+03   2.7523434e+03   2.7510292e+03   2.7497150e+03   2.7484008e+03   2.7473769e+03   2.7463529e+03   2.7453290e+03   2.7443051e+03   2.7430171e+03   2.7417290e+03   2.7404410e+03   2.7391530e+03   2.7377897e+03   2.7364264e+03   2.7350631e+03   2.7336998e+03   2.7320066e+03   2.7303134e+03   2.7286202e+03   2.7269270e+03   2.7253063e+03   2.7236857e+03   2.7220650e+03   2.7204443e+03   2.7201313e+03   2.7198183e+03   2.7195053e+03   2.7191923e+03   2.7189542e+03   2.7187160e+03   2.7184779e+03   2.7182397e+03   2.7179968e+03   2.7177540e+03   2.7175111e+03   2.7172683e+03   2.7168837e+03   2.7164991e+03   2.7161144e+03   2.7157298e+03   2.7144096e+03   2.7130894e+03   2.7122857e+03   2.7114820e+03   2.7103277e+03   2.7090717e+03   2.7070539e+03   2.7045302e+03   2.7017497e+03   2.6993241e+03   2.6975695e+03   2.6969213e+03   2.6975916e+03   2.6992704e+03   2.7018921e+03   2.7051141e+03   2.7078670e+03   2.7095648e+03   2.7082433e+03   2.7059044e+03   2.7037728e+03   2.7009017e+03   2.6975979e+03   2.6952919e+03   2.6932759e+03   2.6908879e+03   2.6882926e+03   2.6856389e+03   2.6829645e+03   2.6803197e+03   2.6777174e+03   2.6751188e+03   2.6725484e+03   2.6699731e+03   2.6670524e+03   2.6641395e+03   2.6615014e+03   2.6588635e+03   2.6562522e+03   2.6536173e+03   2.6509114e+03   2.6482291e+03   2.6456629e+03   2.6429870e+03   2.6398406e+03   2.6366568e+03   2.6330672e+03   2.6298027e+03   2.6272246e+03   2.6247502e+03   2.6193030e+03   2.6132169e+03   2.6063414e+03   2.5995074e+03   2.5934184e+03   2.5873631e+03   2.5814795e+03   2.5757837e+03   2.5721927e+03   2.5686947e+03   2.5652664e+03   2.5618907e+03   2.5592082e+03   2.5565010e+03   2.5545591e+03   2.5529737e+03
2.7663544e+03   2.7724985e+03   2.7721742e+03   2.7719309e+03   2.7715745e+03   2.7711529e+03   2.7707380e+03   2.7703326e+03   2.7699300e+03   2.7695275e+03   2.7691251e+03   2.7689237e+03   2.7687223e+03   2.7685230e+03   2.7683238e+03   2.7682378e+03   2.7681519e+03   2.7680659e+03   2.7679799e+03   2.7679531e+03   2.7679263e+03   2.7678994e+03   2.7678726e+03   2.7678618e+03   2.7678509e+03   2.7678401e+03   2.7678292e+03   2.7672969e+03   2.7667645e+03   2.7662322e+03   2.7656998e+03   2.7643412e+03   2.7629825e+03   2.7616239e+03   2.7602652e+03   2.7589524e+03   2.7576395e+03   2.7563267e+03   2.7550138e+03   2.7540548e+03   2.7530958e+03   2.7521368e+03   2.7511777e+03   2.7499046e+03   2.7486315e+03   2.7473584e+03   2.7460853e+03   2.7447109e+03   2.7433366e+03   2.7419623e+03   2.7405880e+03   2.7389163e+03   2.7372445e+03   2.7355729e+03   2.7339012e+03   2.7323105e+03   2.7307198e+03   2.7291291e+03   2.7275385e+03   2.7272394e+03   2.7269404e+03   2.7266413e+03   2.7263423e+03   2.7261150e+03   2.7258877e+03   2.7256604e+03   2.7254331e+03   2.7251716e+03   2.7249100e+03   2.7246484e+03   2.7243868e+03   2.7239665e+03   2.7235462e+03   2.7231259e+03   2.7227056e+03   2.7212790e+03   2.7198523e+03   2.7189972e+03   2.7181420e+03   2.7168502e+03   2.7156058e+03   2.7136867e+03   2.7111792e+03   2.7083337e+03   2.7058105e+03   2.7039390e+03   2.7031952e+03   2.7038587e+03   2.7056008e+03   2.7083452e+03   2.7117931e+03   2.7146170e+03   2.7161661e+03   2.7146664e+03   2.7122409e+03   2.7099576e+03   2.7068857e+03   2.7035912e+03   2.7013555e+03   2.6992789e+03   2.6968271e+03   2.6942418e+03   2.6916088e+03   2.6889466e+03   2.6863048e+03   2.6836984e+03   2.6810921e+03   2.6785032e+03   2.6758971e+03   2.6728907e+03   2.6698857e+03   2.6671941e+03   2.6645168e+03   2.6618863e+03   2.6592360e+03   2.6565156e+03   2.6538193e+03   2.6512506e+03   2.6485774e+03   2.6454344e+03   2.6422545e+03   2.6386588e+03   2.6353727e+03   2.6327436e+03   2.6302175e+03   2.6247492e+03   2.6186883e+03   2.6119903e+03   2.6053049e+03   2.5992119e+03   2.5931505e+03   2.5872693e+03   2.5815781e+03   2.5779936e+03   2.5744994e+03   2.5710804e+03   2.5677221e+03   2.5650261e+03   2.5622890e+03   2.5604783e+03   2.5593019e+03
2.7739204e+03   2.7796373e+03   2.7791332e+03   2.7789091e+03   2.7785596e+03   2.7781225e+03   2.7776904e+03   2.7772694e+03   2.7768516e+03   2.7764341e+03   2.7760165e+03   2.7758072e+03   2.7755978e+03   2.7753896e+03   2.7751814e+03   2.7750914e+03   2.7750014e+03   2.7749114e+03   2.7748214e+03   2.7747950e+03   2.7747686e+03   2.7747423e+03   2.7747159e+03   2.7747092e+03   2.7747025e+03   2.7746959e+03   2.7746892e+03   2.7741430e+03   2.7735969e+03   2.7730508e+03   2.7725046e+03   2.7710967e+03   2.7696887e+03   2.7682807e+03   2.7668728e+03   2.7655613e+03   2.7642499e+03   2.7629384e+03   2.7616269e+03   2.7607328e+03   2.7598387e+03   2.7589445e+03   2.7580504e+03   2.7567922e+03   2.7555340e+03   2.7542757e+03   2.7530175e+03   2.7516321e+03   2.7502468e+03   2.7488614e+03   2.7474761e+03   2.7458259e+03   2.7441757e+03   2.7425255e+03   2.7408753e+03   2.7393146e+03   2.7377539e+03   2.7361933e+03   2.7346326e+03   2.7343475e+03   2.7340624e+03   2.7337774e+03   2.7334923e+03   2.7332759e+03   2.7330595e+03   2.7328430e+03   2.7326266e+03   2.7323463e+03   2.7320660e+03   2.7317856e+03   2.7315053e+03   2.7310493e+03   2.7305934e+03   2.7301375e+03   2.7296815e+03   2.7281484e+03   2.7266152e+03   2.7257086e+03   2.7248020e+03   2.7233728e+03   2.7221398e+03   2.7203196e+03   2.7178282e+03   2.7149178e+03   2.7122969e+03   2.7103084e+03   2.7094690e+03   2.7101258e+03   2.7119313e+03   2.7147983e+03   2.7184720e+03   2.7213670e+03   2.7227674e+03   2.7210895e+03   2.7185775e+03   2.7161425e+03   2.7128696e+03   2.7095844e+03   2.7074190e+03   2.7052818e+03   2.7027663e+03   2.7001910e+03   2.6975787e+03   2.6949288e+03   2.6922899e+03   2.6896795e+03   2.6870653e+03   2.6844580e+03   2.6818210e+03   2.6787289e+03   2.6756319e+03   2.6728868e+03   2.6701701e+03   2.6675203e+03   2.6648546e+03   2.6621197e+03   2.6594096e+03   2.6568384e+03   2.6541677e+03   2.6510282e+03   2.6478522e+03   2.6442505e+03   2.6409426e+03   2.6382625e+03   2.6356848e+03   2.6301954e+03   2.6241597e+03   2.6176392e+03   2.6111024e+03   2.6050055e+03   2.5989378e+03   2.5930590e+03   2.5873725e+03   2.5837944e+03   2.5803041e+03   2.5768943e+03   2.5735535e+03   2.5708440e+03   2.5680769e+03   2.5663974e+03   2.5656301e+03
2.7814865e+03   2.7865576e+03   2.7859443e+03   2.7857037e+03   2.7853438e+03   2.7848901e+03   2.7844411e+03   2.7840044e+03   2.7835713e+03   2.7831386e+03   2.7827056e+03   2.7824881e+03   2.7822707e+03   2.7820534e+03   2.7818360e+03   2.7817411e+03   2.7816462e+03   2.7815514e+03   2.7814564e+03   2.7814275e+03   2.7813985e+03   2.7813695e+03   2.7813405e+03   2.7813356e+03   2.7813308e+03   2.7813259e+03   2.7813211e+03   2.7807678e+03   2.7802145e+03   2.7796612e+03   2.7791080e+03   2.7776621e+03   2.7762162e+03   2.7747704e+03   2.7733245e+03   2.7720115e+03   2.7706984e+03   2.7693854e+03   2.7680724e+03   2.7672304e+03   2.7663885e+03   2.7655466e+03   2.7647047e+03   2.7634530e+03   2.7622013e+03   2.7609496e+03   2.7596980e+03   2.7583075e+03   2.7569171e+03   2.7555266e+03   2.7541362e+03   2.7525185e+03   2.7509008e+03   2.7492831e+03   2.7476654e+03   2.7461434e+03   2.7446213e+03   2.7430993e+03   2.7415772e+03   2.7412780e+03   2.7409789e+03   2.7406797e+03   2.7403805e+03   2.7401347e+03   2.7398889e+03   2.7396430e+03   2.7393972e+03   2.7390805e+03   2.7387638e+03   2.7384470e+03   2.7381303e+03   2.7376573e+03   2.7371843e+03   2.7367113e+03   2.7362383e+03   2.7347410e+03   2.7332437e+03   2.7323840e+03   2.7315243e+03   2.7300760e+03   2.7288160e+03   2.7269941e+03   2.7244714e+03   2.7215198e+03   2.7188149e+03   2.7166537e+03   2.7158003e+03   2.7164840e+03   2.7184940e+03   2.7216090e+03   2.7253613e+03   2.7281434e+03   2.7292735e+03   2.7274023e+03   2.7248023e+03   2.7222321e+03   2.7188102e+03   2.7155307e+03   2.7134081e+03   2.7112076e+03   2.7086148e+03   2.7060315e+03   2.7034272e+03   2.7007834e+03   2.6981444e+03   2.6955298e+03   2.6929084e+03   2.6902843e+03   2.6876181e+03   2.6844502e+03   2.6812726e+03   2.6784801e+03   2.6757283e+03   2.6730593e+03   2.6703778e+03   2.6676281e+03   2.6649043e+03   2.6623311e+03   2.6596627e+03   2.6565231e+03   2.6533468e+03   2.6497367e+03   2.6464078e+03   2.6436915e+03   2.6410808e+03   2.6355724e+03   2.6295525e+03   2.6231619e+03   2.6167338e+03   2.6106286e+03   2.6045507e+03   2.5986671e+03   2.5929756e+03   2.5893894e+03   2.5858884e+03   2.5824776e+03   2.5791390e+03   2.5763981e+03   2.5735881e+03   2.5718076e+03   2.5714716e+03
2.7890526e+03   2.7934779e+03   2.7927554e+03   2.7924983e+03   2.7921280e+03   2.7916577e+03   2.7911919e+03   2.7907394e+03   2.7902910e+03   2.7898431e+03   2.7893946e+03   2.7891691e+03   2.7889436e+03   2.7887171e+03   2.7884907e+03   2.7883909e+03   2.7882911e+03   2.7881913e+03   2.7880915e+03   2.7880599e+03   2.7880283e+03   2.7879966e+03   2.7879650e+03   2.7879620e+03   2.7879590e+03   2.7879559e+03   2.7879529e+03   2.7873925e+03   2.7868321e+03   2.7862717e+03   2.7857113e+03   2.7842275e+03   2.7827437e+03   2.7812600e+03   2.7797762e+03   2.7784616e+03   2.7771470e+03   2.7758324e+03   2.7745178e+03   2.7737281e+03   2.7729384e+03   2.7721487e+03   2.7713590e+03   2.7701139e+03   2.7688687e+03   2.7676235e+03   2.7663784e+03   2.7649829e+03   2.7635873e+03   2.7621918e+03   2.7607963e+03   2.7592111e+03   2.7576259e+03   2.7560408e+03   2.7544556e+03   2.7529721e+03   2.7514887e+03   2.7500053e+03   2.7485218e+03   2.7482085e+03   2.7478953e+03   2.7475820e+03   2.7472688e+03   2.7469936e+03   2.7467183e+03   2.7464430e+03   2.7461678e+03   2.7458147e+03   2.7454615e+03   2.7451084e+03   2.7447553e+03   2.7442652e+03   2.7437751e+03   2.7432851e+03   2.7427950e+03   2.7413336e+03   2.7398722e+03   2.7390593e+03   2.7382465e+03   2.7367791e+03   2.7354923e+03   2.7336687e+03   2.7311146e+03   2.7281217e+03   2.7253328e+03   2.7229989e+03   2.7221317e+03   2.7228422e+03   2.7250567e+03   2.7284197e+03   2.7322506e+03   2.7349198e+03   2.7357796e+03   2.7337152e+03   2.7310270e+03   2.7283217e+03   2.7247509e+03   2.7214769e+03   2.7193971e+03   2.7171334e+03   2.7144634e+03   2.7118720e+03   2.7092757e+03   2.7066380e+03   2.7039990e+03   2.7013802e+03   2.6987516e+03   2.6961106e+03   2.6934153e+03   2.6901714e+03   2.6869134e+03   2.6840734e+03   2.6812864e+03   2.6785983e+03   2.6759010e+03   2.6731364e+03   2.6703990e+03   2.6678239e+03   2.6651576e+03   2.6620180e+03   2.6588414e+03   2.6552229e+03   2.6518731e+03   2.6491205e+03   2.6464768e+03   2.6409494e+03   2.6349453e+03   2.6286847e+03   2.6223651e+03   2.6162517e+03   2.6101636e+03   2.6042751e+03   2.5985788e+03   2.5949843e+03   2.5914728e+03   2.5880610e+03   2.5847245e+03   2.5819523e+03   2.5790993e+03   2.5772178e+03   2.5773130e+03
