8.1717514e+03   8.6779443e+03   9.1842685e+03   9.6874983e+03   1.0186824e+04   1.0666002e+04   1.1120191e+04   1.1553278e+04   1.1971712e+04   1.2373586e+04   1.2762913e+04   1.3140515e+04   1.3506189e+04   1.3861777e+04   1.4211955e+04   1.4554594e+04   1.4890804e+04   1.5216559e+04   1.5533184e+04   1.5839256e+04   1.6137831e+04   1.6414601e+04   1.6674211e+04   1.6920037e+04   1.7156404e+04   1.7385865e+04   1.7610832e+04   1.7831599e+04   1.8049521e+04   1.8260117e+04   1.8465231e+04   1.8665536e+04   1.8862541e+04   1.9056910e+04   1.9249535e+04   1.9440499e+04   1.9619981e+04   1.9789761e+04   1.9951041e+04   2.0104603e+04   2.0250843e+04   2.0389977e+04   2.0522252e+04   2.0648118e+04   2.0768327e+04   2.0883933e+04   2.0996226e+04   2.1106588e+04   2.1216312e+04   2.1326449e+04   2.1437705e+04   2.1550408e+04   2.1664545e+04   2.1779806e+04   2.1895642e+04   2.2011325e+04   2.2126022e+04   2.2238874e+04   2.2349080e+04   2.2455960e+04   2.2559012e+04   2.2657924e+04   2.2755537e+04   2.2853435e+04   2.2939474e+04   2.3021512e+04   2.3100003e+04   2.3175434e+04   2.3248292e+04   2.3319046e+04   2.3388131e+04   2.3455943e+04   2.3522840e+04   2.3589148e+04   2.3622153e+04   2.3655159e+04   2.3688165e+04   2.3721237e+04   2.3754376e+04   2.3787626e+04   2.3820985e+04   2.3854597e+04   2.3888461e+04   2.3922626e+04   2.3957056e+04   2.3991805e+04   2.4026834e+04   2.4062216e+04   2.4097912e+04   2.4134012e+04   2.4170475e+04   2.4207403e+04   2.4244748e+04   2.4282626e+04   2.4320976e+04   2.4359925e+04   2.4399404e+04   2.4439548e+04   2.4480277e+04   2.4521732e+04   2.4563829e+04   2.4606710e+04   2.4650283e+04   2.4694695e+04   2.4739843e+04   2.4785878e+04   2.4832689e+04   2.4880424e+04   2.4928963e+04   2.4978452e+04   2.5028764e+04   2.5080035e+04   2.5132133e+04   2.5185183e+04   2.5239049e+04   2.5293838e+04   2.5349413e+04   2.5405862e+04   2.5463051e+04   2.5521051e+04   2.5579730e+04   2.5649456e+04   2.5731776e+04   2.5826228e+04   2.5928197e+04   2.6032550e+04   2.6134956e+04   2.6268368e+04   2.6407245e+04   2.6553055e+04   2.6707302e+04   2.6871366e+04   2.7046363e+04   2.7233057e+04   2.7431815e+04   2.7642612e+04   2.7864815e+04   2.8096689e+04   2.8347161e+04   2.8600186e+04   2.8862927e+04   2.9148953e+04   2.9449939e+04   2.9762854e+04   3.0080913e+04   3.0396292e+04   3.0741686e+04   3.1095411e+04   3.1453248e+04   3.1819518e+04   3.2194129e+04   3.2567838e+04   3.2941023e+04   3.3311261e+04   3.3679426e+04   3.4049788e+04   3.4420844e+04   3.4791791e+04   3.5162469e+04   3.5532533e+04
8.1616014e+03   8.6875603e+03   9.2047706e+03   9.7105214e+03   1.0209646e+04   1.0685469e+04   1.1137040e+04   1.1568171e+04   1.1984743e+04   1.2387340e+04   1.2782144e+04   1.3159099e+04   1.3520160e+04   1.3874671e+04   1.4223959e+04   1.4565543e+04   1.4903185e+04   1.5227874e+04   1.5541329e+04   1.5843930e+04   1.6139496e+04   1.6414409e+04   1.6673054e+04   1.6918284e+04   1.7154292e+04   1.7383530e+04   1.7608398e+04   1.7829057e+04   1.8046863e+04   1.8257510e+04   1.8462817e+04   1.8663324e+04   1.8860530e+04   1.9055070e+04   1.9247846e+04   1.9438910e+04   1.9617449e+04   1.9785817e+04   1.9946187e+04   2.0099771e+04   2.0246908e+04   2.0387479e+04   2.0521330e+04   2.0648589e+04   2.0769823e+04   2.0886027e+04   2.0998510e+04   2.1108712e+04   2.1218003e+04   2.1327521e+04   2.1438077e+04   2.1550112e+04   2.1663716e+04   2.1778649e+04   2.1894377e+04   2.2010132e+04   2.2124993e+04   2.2237995e+04   2.2348230e+04   2.2454942e+04   2.2557587e+04   2.2655857e+04   2.2752603e+04   2.2849209e+04   2.2934195e+04   2.3015186e+04   2.3092698e+04   2.3167256e+04   2.3239371e+04   2.3309514e+04   2.3376134e+04   2.3442755e+04   2.3509322e+04   2.3575859e+04   2.3609150e+04   2.3642443e+04   2.3675825e+04   2.3709298e+04   2.3742853e+04   2.3776536e+04   2.3810338e+04   2.3844387e+04   2.3878682e+04   2.3913280e+04   2.3948145e+04   2.3983341e+04   2.4018826e+04   2.4054680e+04   2.4090863e+04   2.4127470e+04   2.4164456e+04   2.4201933e+04   2.4239848e+04   2.4278324e+04   2.4317300e+04   2.4356909e+04   2.4397078e+04   2.4437948e+04   2.4479439e+04   2.4521696e+04   2.4564629e+04   2.4608388e+04   2.4652873e+04   2.4698236e+04   2.4744367e+04   2.4791417e+04   2.4839269e+04   2.4888070e+04   2.4937695e+04   2.4988285e+04   2.5039705e+04   2.5092090e+04   2.5145300e+04   2.5199458e+04   2.5254422e+04   2.5310301e+04   2.5366956e+04   2.5424487e+04   2.5482758e+04   2.5541866e+04   2.5601682e+04   2.5672904e+04   2.5756910e+04   2.5853283e+04   2.5957579e+04   2.6064936e+04   2.6171059e+04   2.6308335e+04   2.6450646e+04   2.6598971e+04   2.6754424e+04   2.6918197e+04   2.7091531e+04   2.7275623e+04   2.7471463e+04   2.7680061e+04   2.7901626e+04   2.8135271e+04   2.8380435e+04   2.8635089e+04   2.8905682e+04   2.9183641e+04   2.9475694e+04   2.9780489e+04   3.0091621e+04   3.0399380e+04   3.0743741e+04   3.1097075e+04   3.1454836e+04   3.1821679e+04   3.2196299e+04   3.2569947e+04   3.2943031e+04   3.3312939e+04   3.3680780e+04   3.4050986e+04   3.4421939e+04   3.4792776e+04   3.5163323e+04   3.5533208e+04
8.1424042e+03   8.6924814e+03   9.2186360e+03   9.7248176e+03   1.0220746e+04   1.0691852e+04   1.1138196e+04   1.1564925e+04   1.1976952e+04   1.2379002e+04   1.2777535e+04   1.3164285e+04   1.3536921e+04   1.3897585e+04   1.4244144e+04   1.4583329e+04   1.4919322e+04   1.5240928e+04   1.5552381e+04   1.5853159e+04   1.6147410e+04   1.6422114e+04   1.6680484e+04   1.6924993e+04   1.7160099e+04   1.7388491e+04   1.7612746e+04   1.7832930e+04   1.8050441e+04   1.8261250e+04   1.8466876e+04   1.8667572e+04   1.8864831e+04   1.9059330e+04   1.9252053e+04   1.9443040e+04   1.9618292e+04   1.9783211e+04   1.9941074e+04   2.0093474e+04   2.0240671e+04   2.0382246e+04   2.0517678e+04   2.0646724e+04   2.0769630e+04   2.0887140e+04   2.1000401e+04   2.1110793e+04   2.1219737e+04   2.1328531e+04   2.1438211e+04   2.1549452e+04   2.1662510e+04   2.1777208e+04   2.1892979e+04   2.2008969e+04   2.2124167e+04   2.2237512e+04   2.2348015e+04   2.2454844e+04   2.2557391e+04   2.2655305e+04   2.2751487e+04   2.2847264e+04   2.2931063e+04   2.3010745e+04   2.3086902e+04   2.3160135e+04   2.3231014e+04   2.3300057e+04   2.3365833e+04   2.3431736e+04   2.3497743e+04   2.3563886e+04   2.3597065e+04   2.3630245e+04   2.3663594e+04   2.3697072e+04   2.3730668e+04   2.3764432e+04   2.3798348e+04   2.3832556e+04   2.3867050e+04   2.3901890e+04   2.3937035e+04   2.3972546e+04   2.4008373e+04   2.4044596e+04   2.4081166e+04   2.4118180e+04   2.4155586e+04   2.4193494e+04   2.4231846e+04   2.4270762e+04   2.4310178e+04   2.4350220e+04   2.4390813e+04   2.4432093e+04   2.4473975e+04   2.4516598e+04   2.4559868e+04   2.4603929e+04   2.4648678e+04   2.4694260e+04   2.4740563e+04   2.4787732e+04   2.4835649e+04   2.4884454e+04   2.4934024e+04   2.4984495e+04   2.5035735e+04   2.5087876e+04   2.5140778e+04   2.5194567e+04   2.5249100e+04   2.5304496e+04   2.5360609e+04   2.5417559e+04   2.5475200e+04   2.5533655e+04   2.5592780e+04   2.5663490e+04   2.5746624e+04   2.5841818e+04   2.5944655e+04   2.6050715e+04   2.6155978e+04   2.6291976e+04   2.6433136e+04   2.6580604e+04   2.6735651e+04   2.6899825e+04   2.7074633e+04   2.7261444e+04   2.7461152e+04   2.7673837e+04   2.7898912e+04   2.8136080e+04   2.8386605e+04   2.8649480e+04   2.8923492e+04   2.9200789e+04   2.9490036e+04   2.9793684e+04   3.0105252e+04   3.0402470e+04   3.0745797e+04   3.1098739e+04   3.1456425e+04   3.1823840e+04   3.2198468e+04   3.2572055e+04   3.2945038e+04   3.3314619e+04   3.3682134e+04   3.4052185e+04   3.4423035e+04   3.4793762e+04   3.5164178e+04   3.5533884e+04
8.1505744e+03   8.6893427e+03   9.2116755e+03   9.7244302e+03   1.0220395e+04   1.0684614e+04   1.1123508e+04   1.1542937e+04   1.1945805e+04   1.2336981e+04   1.2731185e+04   1.3130906e+04   1.3524172e+04   1.3891682e+04   1.4234319e+04   1.4566914e+04   1.4896179e+04   1.5213775e+04   1.5525011e+04   1.5827703e+04   1.6122898e+04   1.6398241e+04   1.6657373e+04   1.6902749e+04   1.7138767e+04   1.7368028e+04   1.7593001e+04   1.7813709e+04   1.8031339e+04   1.8242748e+04   1.8449568e+04   1.8651610e+04   1.8850141e+04   1.9045744e+04   1.9239352e+04   1.9431152e+04   1.9609324e+04   1.9777554e+04   1.9936810e+04   2.0088184e+04   2.0232613e+04   2.0370763e+04   2.0503046e+04   2.0629765e+04   2.0751281e+04   2.0868205e+04   2.0981463e+04   2.1092289e+04   2.1202075e+04   2.1312096e+04   2.1423234e+04   2.1535854e+04   2.1649820e+04   2.1764673e+04   2.1879863e+04   2.1994762e+04   2.2108662e+04   2.2220806e+04   2.2330420e+04   2.2436790e+04   2.2539320e+04   2.2637590e+04   2.2734625e+04   2.2832015e+04   2.2916628e+04   2.2997005e+04   2.3073675e+04   2.3147208e+04   2.3218182e+04   2.3287148e+04   2.3352763e+04   2.3418547e+04   2.3484510e+04   2.3550725e+04   2.3584012e+04   2.3617300e+04   2.3650868e+04   2.3684588e+04   2.3718446e+04   2.3752500e+04   2.3786730e+04   2.3821284e+04   2.3856156e+04   2.3891394e+04   2.3926943e+04   2.3962850e+04   2.3999058e+04   2.4035632e+04   2.4072519e+04   2.4109800e+04   2.4147424e+04   2.4185483e+04   2.4223922e+04   2.4262840e+04   2.4302178e+04   2.4342040e+04   2.4382361e+04   2.4423251e+04   2.4464635e+04   2.4506631e+04   2.4549154e+04   2.4592328e+04   2.4636057e+04   2.4680472e+04   2.4725469e+04   2.4771178e+04   2.4817489e+04   2.4864534e+04   2.4912190e+04   2.4960597e+04   2.5009621e+04   2.5059404e+04   2.5109801e+04   2.5160962e+04   2.5212732e+04   2.5265272e+04   2.5318419e+04   2.5372383e+04   2.5426983e+04   2.5482368e+04   2.5538367e+04   2.5605975e+04   2.5685089e+04   2.5775830e+04   2.5873941e+04   2.5975904e+04   2.6078278e+04   2.6212540e+04   2.6354518e+04   2.6504899e+04   2.6666156e+04   2.6838811e+04   2.7023640e+04   2.7220758e+04   2.7429550e+04   2.7648840e+04   2.7877981e+04   2.8117695e+04   2.8369432e+04   2.8632834e+04   2.8905088e+04   2.9181127e+04   2.9474759e+04   2.9785191e+04   3.0099732e+04   3.0405559e+04   3.0747854e+04   3.1100403e+04   3.1458013e+04   3.1826002e+04   3.2200637e+04   3.2574164e+04   3.2947045e+04   3.3316297e+04   3.3683488e+04   3.4053383e+04   3.4424131e+04   3.4794747e+04   3.5165031e+04   3.5534559e+04
8.1799329e+03   8.6788045e+03   9.2026016e+03   9.7248080e+03   1.0213170e+04   1.0668817e+04   1.1106818e+04   1.1525693e+04   1.1922367e+04   1.2304775e+04   1.2691385e+04   1.3094888e+04   1.3502141e+04   1.3868499e+04   1.4202953e+04   1.4524022e+04   1.4839942e+04   1.5153105e+04   1.5463678e+04   1.5763369e+04   1.6052363e+04   1.6323900e+04   1.6582391e+04   1.6828953e+04   1.7067891e+04   1.7300289e+04   1.7528295e+04   1.7750434e+04   1.7968284e+04   1.8181795e+04   1.8392121e+04   1.8597872e+04   1.8800314e+04   1.8999305e+04   1.9195796e+04   1.9389427e+04   1.9576519e+04   1.9752659e+04   1.9916820e+04   2.0069685e+04   2.0213025e+04   2.0348138e+04   2.0476798e+04   2.0600068e+04   2.0718964e+04   2.0834237e+04   2.0946816e+04   2.1058028e+04   2.1169599e+04   2.1282406e+04   2.1396514e+04   2.1511241e+04   2.1625058e+04   2.1737731e+04   2.1849462e+04   2.1960310e+04   2.2070189e+04   2.2178621e+04   2.2285060e+04   2.2388987e+04   2.2489922e+04   2.2587504e+04   2.2684125e+04   2.2781458e+04   2.2868180e+04   2.2951338e+04   2.3031268e+04   2.3108261e+04   2.3182629e+04   2.3254738e+04   2.3323199e+04   2.3391228e+04   2.3458874e+04   2.3526237e+04   2.3559840e+04   2.3593444e+04   2.3627111e+04   2.3660799e+04   2.3694511e+04   2.3728293e+04   2.3762136e+04   2.3796152e+04   2.3830358e+04   2.3864803e+04   2.3899441e+04   2.3934307e+04   2.3969352e+04   2.4004631e+04   2.4040097e+04   2.4075824e+04   2.4111771e+04   2.4148021e+04   2.4184529e+04   2.4221388e+04   2.4258544e+04   2.4296103e+04   2.4333999e+04   2.4372347e+04   2.4411072e+04   2.4450295e+04   2.4489931e+04   2.4530110e+04   2.4570732e+04   2.4611935e+04   2.4653608e+04   2.4695895e+04   2.4738672e+04   2.4782095e+04   2.4826029e+04   2.4870660e+04   2.4915833e+04   2.4961764e+04   2.5008281e+04   2.5055624e+04   2.5103607e+04   2.5152522e+04   2.5202149e+04   2.5252960e+04   2.5304578e+04   2.5357122e+04   2.5410437e+04   2.5475683e+04   2.5552201e+04   2.5641662e+04   2.5739435e+04   2.5842012e+04   2.5945574e+04   2.6088661e+04   2.6240469e+04   2.6405572e+04   2.6581912e+04   2.6769519e+04   2.6968358e+04   2.7178026e+04   2.7396560e+04   2.7622583e+04   2.7856467e+04   2.8099977e+04   2.8354393e+04   2.8618809e+04   2.8891151e+04   2.9170728e+04   2.9471697e+04   2.9788084e+04   3.0107859e+04   3.0440626e+04   3.0779206e+04   3.1129849e+04   3.1487372e+04   3.1855505e+04   3.2228410e+04   3.2599830e+04   3.2970248e+04   3.3337388e+04   3.3703187e+04   3.4070735e+04   3.4439249e+04   3.4807393e+04   3.5175137e+04   3.5540721e+04
8.1976047e+03   8.6695131e+03   9.1955123e+03   9.7113477e+03   1.0180606e+04   1.0625314e+04   1.1068604e+04   1.1497492e+04   1.1898728e+04   1.2279793e+04   1.2662696e+04   1.3074679e+04   1.3484879e+04   1.3851272e+04   1.4180967e+04   1.4496068e+04   1.4808178e+04   1.5117779e+04   1.5423757e+04   1.5718162e+04   1.6001512e+04   1.6269998e+04   1.6528339e+04   1.6776918e+04   1.7018772e+04   1.7254256e+04   1.7485101e+04   1.7709968e+04   1.7930204e+04   1.8145695e+04   1.8357982e+04   1.8565814e+04   1.8770192e+04   1.8970844e+04   1.9168686e+04   1.9362860e+04   1.9548308e+04   1.9725275e+04   1.9894186e+04   2.0055147e+04   2.0206870e+04   2.0348149e+04   2.0479716e+04   2.0603672e+04   2.0721579e+04   2.0835324e+04   2.0946211e+04   2.1055034e+04   2.1162491e+04   2.1269479e+04   2.1376350e+04   2.1482911e+04   2.1589711e+04   2.1697780e+04   2.1807215e+04   2.1917544e+04   2.2027571e+04   2.2136282e+04   2.2242808e+04   2.2346635e+04   2.2447654e+04   2.2545802e+04   2.2642924e+04   2.2740580e+04   2.2829682e+04   2.2915324e+04   2.2997408e+04   2.3076108e+04   2.3151595e+04   2.3224039e+04   2.3290390e+04   2.3355584e+04   2.3419561e+04   2.3482353e+04   2.3513212e+04   2.3544070e+04   2.3574587e+04   2.3604929e+04   2.3635129e+04   2.3665215e+04   2.3695208e+04   2.3725256e+04   2.3755416e+04   2.3785735e+04   2.3816166e+04   2.3846744e+04   2.3877423e+04   2.3908273e+04   2.3939261e+04   2.3970485e+04   2.4001915e+04   2.4033664e+04   2.4065691e+04   2.4098127e+04   2.4130918e+04   2.4164206e+04   2.4197921e+04   2.4232219e+04   2.4267014e+04   2.4302473e+04   2.4338491e+04   2.4375246e+04   2.4412615e+04   2.4450786e+04   2.4489622e+04   2.4529319e+04   2.4569730e+04   2.4611058e+04   2.4653151e+04   2.4696268e+04   2.4740226e+04   2.4785319e+04   2.4831328e+04   2.4878562e+04   2.4926770e+04   2.4976580e+04   2.5027569e+04   2.5081090e+04   2.5136469e+04   2.5193255e+04   2.5251380e+04   2.5323813e+04   2.5409860e+04   2.5511335e+04   2.5622898e+04   2.5739863e+04   2.5857220e+04   2.6011731e+04   2.6174996e+04   2.6346983e+04   2.6527786e+04   2.6719043e+04   2.6922944e+04   2.7138428e+04   2.7363161e+04   2.7595976e+04   2.7837644e+04   2.8089680e+04   2.8352349e+04   2.8624263e+04   2.8903965e+04   2.9191773e+04   2.9496243e+04   2.9813934e+04   3.0136973e+04   3.0467437e+04   3.0807387e+04   3.1157736e+04   3.1514166e+04   3.1879707e+04   3.2249105e+04   3.2618007e+04   3.2986295e+04   3.3352322e+04   3.3717500e+04   3.4083283e+04   3.4449562e+04   3.4815366e+04   3.5180794e+04   3.5543896e+04
8.2117326e+03   8.6727509e+03   9.1839681e+03   9.6782988e+03   1.0128464e+04   1.0568110e+04   1.1016920e+04   1.1455581e+04   1.1866187e+04   1.2253896e+04   1.2642971e+04   1.3053561e+04   1.3456950e+04   1.3834432e+04   1.4172215e+04   1.4485678e+04   1.4794764e+04   1.5098762e+04   1.5396016e+04   1.5682550e+04   1.5960131e+04   1.6226758e+04   1.6485886e+04   1.6736273e+04   1.6980284e+04   1.7217708e+04   1.7450243e+04   1.7676654e+04   1.7898399e+04   1.8115450e+04   1.8329184e+04   1.8538067e+04   1.8743224e+04   1.8944344e+04   1.9142493e+04   1.9336593e+04   1.9525946e+04   1.9711724e+04   1.9895449e+04   2.0072048e+04   2.0242429e+04   2.0396594e+04   2.0537456e+04   2.0663564e+04   2.0779010e+04   2.0888696e+04   2.0994932e+04   2.1090554e+04   2.1178025e+04   2.1259397e+04   2.1336431e+04   2.1427538e+04   2.1530056e+04   2.1640390e+04   2.1756221e+04   2.1872843e+04   2.1989004e+04   2.2103294e+04   2.2214002e+04   2.2321193e+04   2.2425282e+04   2.2526238e+04   2.2626587e+04   2.2727989e+04   2.2820471e+04   2.2910223e+04   2.2987751e+04   2.3063142e+04   2.3135980e+04   2.3206062e+04   2.3268560e+04   2.3330006e+04   2.3390242e+04   2.3449207e+04   2.3478077e+04   2.3506947e+04   2.3535188e+04   2.3563282e+04   2.3591248e+04   2.3619100e+04   2.3646854e+04   2.3674653e+04   2.3702531e+04   2.3730533e+04   2.3758636e+04   2.3786900e+04   2.3815303e+04   2.3843936e+04   2.3872775e+04   2.3901929e+04   2.3931366e+04   2.3961205e+04   2.3991401e+04   2.4022078e+04   2.4053182e+04   2.4084842e+04   2.4116994e+04   2.4149776e+04   2.4183112e+04   2.4217153e+04   2.4251812e+04   2.4287248e+04   2.4323364e+04   2.4360325e+04   2.4398025e+04   2.4436624e+04   2.4476010e+04   2.4516331e+04   2.4557472e+04   2.4599630e+04   2.4642675e+04   2.4686861e+04   2.4732035e+04   2.4778499e+04   2.4826077e+04   2.4875974e+04   2.4927822e+04   2.4981505e+04   2.5036928e+04   2.5095210e+04   2.5156048e+04   2.5232566e+04   2.5324856e+04   2.5433852e+04   2.5554063e+04   2.5678948e+04   2.5802076e+04   2.5966170e+04   2.6139792e+04   2.6314481e+04   2.6493833e+04   2.6682966e+04   2.6888996e+04   2.7107830e+04   2.7337552e+04   2.7577357e+04   2.7827711e+04   2.8089024e+04   2.8360501e+04   2.8640383e+04   2.8927188e+04   2.9220162e+04   2.9525487e+04   2.9842169e+04   3.0164687e+04   3.0491115e+04   3.0832722e+04   3.1183261e+04   3.1538666e+04   3.1901177e+04   3.2266861e+04   3.2633061e+04   3.2999299e+04   3.3364049e+04   3.3728289e+04   3.4092492e+04   3.4456834e+04   3.4820475e+04   3.5183843e+04   3.5545494e+04
8.2289744e+03   8.6822421e+03   9.1615387e+03   9.6277230e+03   1.0072330e+04   1.0519290e+04   1.0973087e+04   1.1416708e+04   1.1835462e+04   1.2233263e+04   1.2629400e+04   1.3022134e+04   1.3409806e+04   1.3796364e+04   1.4152404e+04   1.4476185e+04   1.4786964e+04   1.5085005e+04   1.5377234e+04   1.5660187e+04   1.5935667e+04   1.6202215e+04   1.6462482e+04   1.6714612e+04   1.6960330e+04   1.7199072e+04   1.7432929e+04   1.7660352e+04   1.7882116e+04   1.8098726e+04   1.8311973e+04   1.8520277e+04   1.8724744e+04   1.8924998e+04   1.9122120e+04   1.9315251e+04   1.9505027e+04   1.9692034e+04   1.9877350e+04   2.0054741e+04   2.0225507e+04   2.0379526e+04   2.0520094e+04   2.0645038e+04   2.0758815e+04   2.0866501e+04   2.0970298e+04   2.1062979e+04   2.1147756e+04   2.1226924e+04   2.1302364e+04   2.1392583e+04   2.1494584e+04   2.1604176e+04   2.1718886e+04   2.1834025e+04   2.1948756e+04   2.2061798e+04   2.2173466e+04   2.2281078e+04   2.2385677e+04   2.2486772e+04   2.2586784e+04   2.2687136e+04   2.2781341e+04   2.2869114e+04   2.2946398e+04   2.3021874e+04   2.3095039e+04   2.3165591e+04   2.3228317e+04   2.3289933e+04   2.3350258e+04   2.3409219e+04   2.3438036e+04   2.3466852e+04   2.3494892e+04   2.3522808e+04   2.3550603e+04   2.3578281e+04   2.3605856e+04   2.3633457e+04   2.3661093e+04   2.3688829e+04   2.3716657e+04   2.3744662e+04   2.3772830e+04   2.3801267e+04   2.3829949e+04   2.3858991e+04   2.3888360e+04   2.3918180e+04   2.3948402e+04   2.3979155e+04   2.4010379e+04   2.4042208e+04   2.4074573e+04   2.4107615e+04   2.4141253e+04   2.4175640e+04   2.4210685e+04   2.4246553e+04   2.4283141e+04   2.4320620e+04   2.4358880e+04   2.4398086e+04   2.4438120e+04   2.4479130e+04   2.4520992e+04   2.4563862e+04   2.4607613e+04   2.4652447e+04   2.4698238e+04   2.4745256e+04   2.4793371e+04   2.4842665e+04   2.4893040e+04   2.4945401e+04   2.4999610e+04   2.5056805e+04   2.5116868e+04   2.5192680e+04   2.5286806e+04   2.5399523e+04   2.5524869e+04   2.5655061e+04   2.5783121e+04   2.5946519e+04   2.6116606e+04   2.6283215e+04   2.6463244e+04   2.6661295e+04   2.6872220e+04   2.7095168e+04   2.7329069e+04   2.7573826e+04   2.7829834e+04   2.8096934e+04   2.8373878e+04   2.8658948e+04   2.8950404e+04   2.9246244e+04   2.9551870e+04   2.9867818e+04   3.0189744e+04   3.0513527e+04   3.0856077e+04   3.1206479e+04   3.1560866e+04   3.1920641e+04   3.2282935e+04   3.2646188e+04   3.3009919e+04   3.3373166e+04   3.3736298e+04   3.4099355e+04   3.4462448e+04   3.4825061e+04   3.5187723e+04   3.5548511e+04
8.2384018e+03   8.6837740e+03   9.1276424e+03   9.5677036e+03   1.0018317e+04   1.0481847e+04   1.0940618e+04   1.1384350e+04   1.1808045e+04   1.2215171e+04   1.2612506e+04   1.2986039e+04   1.3353642e+04   1.3735004e+04   1.4104485e+04   1.4444757e+04   1.4757854e+04   1.5055221e+04   1.5347780e+04   1.5632350e+04   1.5909804e+04   1.6178999e+04   1.6441804e+04   1.6696568e+04   1.6944781e+04   1.7186313e+04   1.7422674e+04   1.7650134e+04   1.7870435e+04   1.8085353e+04   1.8297143e+04   1.8504141e+04   1.8707488e+04   1.8906042e+04   1.9100971e+04   1.9292043e+04   1.9480429e+04   1.9666208e+04   1.9850144e+04   2.0026714e+04   2.0197538e+04   2.0351386e+04   2.0491566e+04   2.0615918e+04   2.0729029e+04   2.0835878e+04   2.0938612e+04   2.1030302e+04   2.1114321e+04   2.1192983e+04   2.1268095e+04   2.1358013e+04   2.1459168e+04   2.1567114e+04   2.1679662e+04   2.1792797e+04   2.1905925e+04   2.2017877e+04   2.2128834e+04   2.2236118e+04   2.2340556e+04   2.2441460e+04   2.2541132e+04   2.2641026e+04   2.2734952e+04   2.2822792e+04   2.2900621e+04   2.2976598e+04   2.3050245e+04   2.3121270e+04   2.3184458e+04   2.3246611e+04   2.3307468e+04   2.3366922e+04   2.3395962e+04   2.3425002e+04   2.3453228e+04   2.3481337e+04   2.3509325e+04   2.3537196e+04   2.3564962e+04   2.3592743e+04   2.3620549e+04   2.3648459e+04   2.3676474e+04   2.3704692e+04   2.3733098e+04   2.3761804e+04   2.3790784e+04   2.3820161e+04   2.3849895e+04   2.3880119e+04   2.3910780e+04   2.3942017e+04   2.3973764e+04   2.4006167e+04   2.4039150e+04   2.4072866e+04   2.4107226e+04   2.4142395e+04   2.4178273e+04   2.4215033e+04   2.4252565e+04   2.4291045e+04   2.4330355e+04   2.4370662e+04   2.4411839e+04   2.4454040e+04   2.4497127e+04   2.4541272e+04   2.4586333e+04   2.4632521e+04   2.4679694e+04   2.4728118e+04   2.4777647e+04   2.4828617e+04   2.4880856e+04   2.4934639e+04   2.4989810e+04   2.5047420e+04   2.5107415e+04   2.5183059e+04   2.5276238e+04   2.5387215e+04   2.5510199e+04   2.5637613e+04   2.5762525e+04   2.5925054e+04   2.6088742e+04   2.6262671e+04   2.6451409e+04   2.6654042e+04   2.6869152e+04   2.7095242e+04   2.7331938e+04   2.7579494e+04   2.7838269e+04   2.8107935e+04   2.8387486e+04   2.8675482e+04   2.8969953e+04   2.9268180e+04   2.9575114e+04   2.9891887e+04   3.0214336e+04   3.0535635e+04   3.0878731e+04   3.1228465e+04   3.1581506e+04   3.1938758e+04   3.2298087e+04   3.2658770e+04   3.3020214e+04   3.3381855e+04   3.3743722e+04   3.4105380e+04   3.4467102e+04   3.4828905e+04   3.5190457e+04   3.5550808e+04
8.2294125e+03   8.6644333e+03   9.0811114e+03   9.5061474e+03   9.9694789e+03   1.0451588e+04   1.0913569e+04   1.1354689e+04   1.1779877e+04   1.2192638e+04   1.2587050e+04   1.2948381e+04   1.3298324e+04   1.3666873e+04   1.4041759e+04   1.4394406e+04   1.4714330e+04   1.5020484e+04   1.5319745e+04   1.5610103e+04   1.5893023e+04   1.6166958e+04   1.6433301e+04   1.6691320e+04   1.6942637e+04   1.7186216e+04   1.7422330e+04   1.7646986e+04   1.7864457e+04   1.8076802e+04   1.8286246e+04   1.8491467e+04   1.8693489e+04   1.8889336e+04   1.9080518e+04   1.9267937e+04   1.9452908e+04   1.9635045e+04   1.9814875e+04   1.9989528e+04   2.0160049e+04   2.0313514e+04   2.0453034e+04   2.0576362e+04   2.0688286e+04   2.0793477e+04   2.0894246e+04   2.0983782e+04   2.1065568e+04   2.1142016e+04   2.1214973e+04   2.1303863e+04   2.1404748e+04   2.1511944e+04   2.1623417e+04   2.1736473e+04   2.1850257e+04   2.1963327e+04   2.2075670e+04   2.2185049e+04   2.2292111e+04   2.2394676e+04   2.2495719e+04   2.2596372e+04   2.2690038e+04   2.2777899e+04   2.2855934e+04   2.2932212e+04   2.3006224e+04   2.3077660e+04   2.3141437e+04   2.3204104e+04   2.3265405e+04   2.3325219e+04   2.3354393e+04   2.3383567e+04   2.3411881e+04   2.3440069e+04   2.3468129e+04   2.3496063e+04   2.3523891e+04   2.3551733e+04   2.3579606e+04   2.3607609e+04   2.3635749e+04   2.3664134e+04   2.3692750e+04   2.3721719e+04   2.3751009e+04   2.3780754e+04   2.3810909e+04   2.3841615e+04   2.3872811e+04   2.3904645e+04   2.3937041e+04   2.3970151e+04   2.4003887e+04   2.4038408e+04   2.4073613e+04   2.4109669e+04   2.4146467e+04   2.4184183e+04   2.4222696e+04   2.4262186e+04   2.4302524e+04   2.4343883e+04   2.4386125e+04   2.4429402e+04   2.4473567e+04   2.4518780e+04   2.4564892e+04   2.4612098e+04   2.4660256e+04   2.4709631e+04   2.4760085e+04   2.4811954e+04   2.4865096e+04   2.4919985e+04   2.4976422e+04   2.5035383e+04   2.5096740e+04   2.5172566e+04   2.5265476e+04   2.5375587e+04   2.5497176e+04   2.5623831e+04   2.5749303e+04   2.5908319e+04   2.6074020e+04   2.6253053e+04   2.6446032e+04   2.6651831e+04   2.6869197e+04   2.7097618e+04   2.7336697e+04   2.7586560e+04   2.7847091e+04   2.8118221e+04   2.8399283e+04   2.8689256e+04   2.8986046e+04   2.9287309e+04   2.9596892e+04   2.9916253e+04   3.0241322e+04   3.0563433e+04   3.0906662e+04   3.1255686e+04   3.1607530e+04   3.1962835e+04   3.2319931e+04   3.2678527e+04   3.3038062e+04   3.3398263e+04   3.3758975e+04   3.4119476e+04   3.4480205e+04   3.4838992e+04   3.5196318e+04   3.5556149e+04
8.1991817e+03   8.6199973e+03   9.0245707e+03   9.4507391e+03   9.9296901e+03   1.0423129e+04   1.0885692e+04   1.1323224e+04   1.1747601e+04   1.2160749e+04   1.2551831e+04   1.2904122e+04   1.3245483e+04   1.3602147e+04   1.3969910e+04   1.4329655e+04   1.4666193e+04   1.4985092e+04   1.5293363e+04   1.5591627e+04   1.5881110e+04   1.6160324e+04   1.6430528e+04   1.6691630e+04   1.6945466e+04   1.7189409e+04   1.7423424e+04   1.7645715e+04   1.7861107e+04   1.8071392e+04   1.8278797e+04   1.8482317e+04   1.8682928e+04   1.8876271e+04   1.9064027e+04   1.9247991e+04   1.9429663e+04   1.9608021e+04   1.9783513e+04   1.9955495e+04   2.0124647e+04   2.0277115e+04   2.0415498e+04   2.0537497e+04   2.0647986e+04   2.0751439e+04   2.0850315e+04   2.0937774e+04   2.1017260e+04   2.1091398e+04   2.1162108e+04   2.1249867e+04   2.1350687e+04   2.1457323e+04   2.1567852e+04   2.1681224e+04   2.1796249e+04   2.1911114e+04   2.2025390e+04   2.2137256e+04   2.2247123e+04   2.2351018e+04   2.2452384e+04   2.2551718e+04   2.2645123e+04   2.2733005e+04   2.2812199e+04   2.2889351e+04   2.2964016e+04   2.3035967e+04   2.3100351e+04   2.3163716e+04   2.3225752e+04   2.3286325e+04   2.3315893e+04   2.3345460e+04   2.3374253e+04   2.3402904e+04   2.3431419e+04   2.3459805e+04   2.3488084e+04   2.3516379e+04   2.3544727e+04   2.3573218e+04   2.3601856e+04   2.3630735e+04   2.3659840e+04   2.3689284e+04   2.3719036e+04   2.3749227e+04   2.3779811e+04   2.3810932e+04   2.3842529e+04   2.3874751e+04   2.3907526e+04   2.3941009e+04   2.3975110e+04   2.4009992e+04   2.4045552e+04   2.4081959e+04   2.4119099e+04   2.4157147e+04   2.4195981e+04   2.4235778e+04   2.4276403e+04   2.4318032e+04   2.4360518e+04   2.4404024e+04   2.4448397e+04   2.4493813e+04   2.4540124e+04   2.4587551e+04   2.4635954e+04   2.4685610e+04   2.4736387e+04   2.4788597e+04   2.4842098e+04   2.4897458e+04   2.4954455e+04   2.5013396e+04   2.5074046e+04   2.5148260e+04   2.5237915e+04   2.5343800e+04   2.5460497e+04   2.5581700e+04   2.5700964e+04   2.5866103e+04   2.6040825e+04   2.6226820e+04   2.6424430e+04   2.6633888e+04   2.6855259e+04   2.7088102e+04   2.7331757e+04   2.7585510e+04   2.7849041e+04   2.8122302e+04   2.8405483e+04   2.8697767e+04   2.8997811e+04   2.9303743e+04   2.9619132e+04   2.9942874e+04   3.0269977e+04   3.0589622e+04   3.0932787e+04   3.1280792e+04   3.1631317e+04   3.1984837e+04   3.2340055e+04   3.2696953e+04   3.3054941e+04   3.3414001e+04   3.3773803e+04   3.4133496e+04   3.4492840e+04   3.4846620e+04   3.5197850e+04   3.5552938e+04
8.1538814e+03   8.5649385e+03   8.9747850e+03   9.4145546e+03   9.9036073e+03   1.0397408e+04   1.0859175e+04   1.1291752e+04   1.1713320e+04   1.2123330e+04   1.2508046e+04   1.2854468e+04   1.3197649e+04   1.3542098e+04   1.3895669e+04   1.4264416e+04   1.4615759e+04   1.4945644e+04   1.5263452e+04   1.5568947e+04   1.5863994e+04   1.6147813e+04   1.6421857e+04   1.6686146e+04   1.6942667e+04   1.7188650e+04   1.7424772e+04   1.7649355e+04   1.7865646e+04   1.8075855e+04   1.8282687e+04   1.8485437e+04   1.8685227e+04   1.8877327e+04   1.9063110e+04   1.9244999e+04   1.9424847e+04   1.9601401e+04   1.9775003e+04   1.9945453e+04   2.0113515e+04   2.0266194e+04   2.0405602e+04   2.0528717e+04   2.0640044e+04   2.0743990e+04   2.0843171e+04   2.0930590e+04   2.1009601e+04   2.1082949e+04   2.1152673e+04   2.1238936e+04   2.1338102e+04   2.1443800e+04   2.1554078e+04   2.1668214e+04   2.1784782e+04   2.1901030e+04   2.2016205e+04   2.2127165e+04   2.2234664e+04   2.2336195e+04   2.2435117e+04   2.2531323e+04   2.2624472e+04   2.2712097e+04   2.2790026e+04   2.2866053e+04   2.2939680e+04   2.3010786e+04   2.3079465e+04   2.3145912e+04   2.3210345e+04   2.3272976e+04   2.3303493e+04   2.3334010e+04   2.3363413e+04   2.3392728e+04   2.3421926e+04   2.3450960e+04   2.3479835e+04   2.3508531e+04   2.3537080e+04   2.3565557e+04   2.3593995e+04   2.3622479e+04   2.3651025e+04   2.3679735e+04   2.3708606e+04   2.3737765e+04   2.3767193e+04   2.3797039e+04   2.3827267e+04   2.3858043e+04   2.3889309e+04   2.3921239e+04   2.3953754e+04   2.3987026e+04   2.4020955e+04   2.4055706e+04   2.4091161e+04   2.4127489e+04   2.4164564e+04   2.4202570e+04   2.4241375e+04   2.4281196e+04   2.4321895e+04   2.4363723e+04   2.4406532e+04   2.4450600e+04   2.4495771e+04   2.4542326e+04   2.4590094e+04   2.4639319e+04   2.4689818e+04   2.4741727e+04   2.4794849e+04   2.4849813e+04   2.4906387e+04   2.4964433e+04   2.5023679e+04   2.5096691e+04   2.5185945e+04   2.5292323e+04   2.5409578e+04   2.5529873e+04   2.5646110e+04   2.5811654e+04   2.5988980e+04   2.6179197e+04   2.6381446e+04   2.6596684e+04   2.6824690e+04   2.7064928e+04   2.7315338e+04   2.7575225e+04   2.7843391e+04   2.8120858e+04   2.8407866e+04   2.8704512e+04   2.9009726e+04   2.9322650e+04   2.9643294e+04   2.9970523e+04   3.0301209e+04   3.0626749e+04   3.0969208e+04   3.1315970e+04   3.1665085e+04   3.2017020e+04   3.2370668e+04   3.2726129e+04   3.3082842e+04   3.3440912e+04   3.3799938e+04   3.4156560e+04   3.4511411e+04   3.4858878e+04   3.5202849e+04   3.5548512e+04
8.1031277e+03   8.5155499e+03   8.9400414e+03   9.3907519e+03   9.8825793e+03   1.0372593e+04   1.0829377e+04   1.1257640e+04   1.1675424e+04   1.2081926e+04   1.2461161e+04   1.2808472e+04   1.3145493e+04   1.3483452e+04   1.3839149e+04   1.4213693e+04   1.4573736e+04   1.4909811e+04   1.5231219e+04   1.5539587e+04   1.5837697e+04   1.6125030e+04   1.6402565e+04   1.6670236e+04   1.6929563e+04   1.7178565e+04   1.7418630e+04   1.7647365e+04   1.7865646e+04   1.8076308e+04   1.8282843e+04   1.8485121e+04   1.8684308e+04   1.8875321e+04   1.9059438e+04   1.9239923e+04   1.9418771e+04   1.9594419e+04   1.9767001e+04   1.9936369e+04   2.0103142e+04   2.0255704e+04   2.0395839e+04   2.0519841e+04   2.0631825e+04   2.0736317e+04   2.0835909e+04   2.0923183e+04   2.1001654e+04   2.1074221e+04   2.1143022e+04   2.1228335e+04   2.1326290e+04   2.1431346e+04   2.1541701e+04   2.1657107e+04   2.1775627e+04   2.1893357e+04   2.2009233e+04   2.2118297e+04   2.2222233e+04   2.2321820e+04   2.2418143e+04   2.2510929e+04   2.2603820e+04   2.2691189e+04   2.2768338e+04   2.2844077e+04   2.2917741e+04   2.2988849e+04   2.3057175e+04   2.3122753e+04   2.3185814e+04   2.3246694e+04   2.3276233e+04   2.3305772e+04   2.3334324e+04   2.3362783e+04   2.3391127e+04   2.3419340e+04   2.3447431e+04   2.3475440e+04   2.3503397e+04   2.3531405e+04   2.3559474e+04   2.3587700e+04   2.3616077e+04   2.3644712e+04   2.3673583e+04   2.3702812e+04   2.3732359e+04   2.3762355e+04   2.3792744e+04   2.3823657e+04   2.3855023e+04   2.3886980e+04   2.3919442e+04   2.3952562e+04   2.3986245e+04   2.4020663e+04   2.4055712e+04   2.4091588e+04   2.4128179e+04   2.4165707e+04   2.4204054e+04   2.4243476e+04   2.4283845e+04   2.4325448e+04   2.4368147e+04   2.4412269e+04   2.4457655e+04   2.4504658e+04   2.4553091e+04   2.4603283e+04   2.4655002e+04   2.4708459e+04   2.4763352e+04   2.4819446e+04   2.4876445e+04   2.4935211e+04   2.4995558e+04   2.5069715e+04   2.5160645e+04   2.5268680e+04   2.5388140e+04   2.5511622e+04   2.5631533e+04   2.5800717e+04   2.5980134e+04   2.6171263e+04   2.6372200e+04   2.6585749e+04   2.6813822e+04   2.7056012e+04   2.7309548e+04   2.7572278e+04   2.7843072e+04   2.8122352e+04   2.8410954e+04   2.8709440e+04   2.9016952e+04   2.9332293e+04   2.9655112e+04   2.9983623e+04   3.0317120e+04   3.0652469e+04   3.0994153e+04   3.1339755e+04   3.1687763e+04   3.2038572e+04   3.2391220e+04   3.2745874e+04   3.3101931e+04   3.3459566e+04   3.3818302e+04   3.4172759e+04   3.4523715e+04   3.4867848e+04   3.5209728e+04   3.5556848e+04
8.0583783e+03   8.4785270e+03   8.9177618e+03   9.3808581e+03   9.8671022e+03   1.0345403e+04   1.0793577e+04   1.1217036e+04   1.1631238e+04   1.2034492e+04   1.2410773e+04   1.2758678e+04   1.3091121e+04   1.3426088e+04   1.3786722e+04   1.4166518e+04   1.4532896e+04   1.4873899e+04   1.5196216e+04   1.5504982e+04   1.5804385e+04   1.6094092e+04   1.6374585e+04   1.6645106e+04   1.6906982e+04   1.7158854e+04   1.7402793e+04   1.7635794e+04   1.7856304e+04   1.8067677e+04   1.8274274e+04   1.8476414e+04   1.8675353e+04   1.8866212e+04   1.9049905e+04   1.9230066e+04   1.9408931e+04   1.9584599e+04   1.9757176e+04   1.9925551e+04   2.0090633e+04   2.0242078e+04   2.0381690e+04   2.0505573e+04   2.0617542e+04   2.0722241e+04   2.0822138e+04   2.0909851e+04   2.0988771e+04   2.1061816e+04   2.1131044e+04   2.1216671e+04   2.1315126e+04   2.1421258e+04   2.1532920e+04   2.1649369e+04   2.1768305e+04   2.1885533e+04   2.2000202e+04   2.2106920e+04   2.2207905e+04   2.2307155e+04   2.2401916e+04   2.2489295e+04   2.2583498e+04   2.2672288e+04   2.2748664e+04   2.2827163e+04   2.2905209e+04   2.2980714e+04   2.3052365e+04   2.3119673e+04   2.3182770e+04   2.3242123e+04   2.3270234e+04   2.3298345e+04   2.3324728e+04   2.3350961e+04   2.3377022e+04   2.3402893e+04   2.3428603e+04   2.3454204e+04   2.3479770e+04   2.3505429e+04   2.3531187e+04   2.3557160e+04   2.3583330e+04   2.3609824e+04   2.3636604e+04   2.3663803e+04   2.3691367e+04   2.3719427e+04   2.3747910e+04   2.3776954e+04   2.3806475e+04   2.3836643e+04   2.3867369e+04   2.3898872e+04   2.3931065e+04   2.3964214e+04   2.3998220e+04   2.4033375e+04   2.4069551e+04   2.4107044e+04   2.4145686e+04   2.4185770e+04   2.4227090e+04   2.4269956e+04   2.4314163e+04   2.4360061e+04   2.4407443e+04   2.4456663e+04   2.4507491e+04   2.4560221e+04   2.4614557e+04   2.4670663e+04   2.4728148e+04   2.4787046e+04   2.4846900e+04   2.4908339e+04   2.4971288e+04   2.5048734e+04   2.5141110e+04   2.5248946e+04   2.5369161e+04   2.5495210e+04   2.5617301e+04   2.5788925e+04   2.5975935e+04   2.6167610e+04   2.6363813e+04   2.6573665e+04   2.6799719e+04   2.7044068e+04   2.7300473e+04   2.7565059e+04   2.7836012e+04   2.8115003e+04   2.8403191e+04   2.8702850e+04   2.9011711e+04   2.9328524e+04   2.9651879e+04   2.9980611e+04   3.0312374e+04   3.0656362e+04   3.0997327e+04   3.1342164e+04   3.1689416e+04   3.2039578e+04   3.2391646e+04   3.2745903e+04   3.3101653e+04   3.3459135e+04   3.3817799e+04   3.4171127e+04   3.4519644e+04   3.4866126e+04   3.5213625e+04   3.5568202e+04
8.0401072e+03   8.4627648e+03   8.9130726e+03   9.3824834e+03   9.8577094e+03   1.0319618e+04   1.0756546e+04   1.1174189e+04   1.1584171e+04   1.1983868e+04   1.2358438e+04   1.2703489e+04   1.3034025e+04   1.3372270e+04   1.3739055e+04   1.4121732e+04   1.4492379e+04   1.4835796e+04   1.5157545e+04   1.5465795e+04   1.5765477e+04   1.6056717e+04   1.6339661e+04   1.6613205e+04   1.6877829e+04   1.7132834e+04   1.7380734e+04   1.7618289e+04   1.7841393e+04   1.8054040e+04   1.8261193e+04   1.8463679e+04   1.8662710e+04   1.8853607e+04   1.9036975e+04   1.9217378e+04   1.9397118e+04   1.9573995e+04   1.9747726e+04   1.9916523e+04   2.0081109e+04   2.0232122e+04   2.0370979e+04   2.0494155e+04   2.0605324e+04   2.0709388e+04   2.0808904e+04   2.0896776e+04   2.0975893e+04   2.1049205e+04   2.1118872e+04   2.1204843e+04   2.1304198e+04   2.1411755e+04   2.1524872e+04   2.1641062e+04   2.1758252e+04   2.1873142e+04   2.1985512e+04   2.2091131e+04   2.2191298e+04   2.2290289e+04   2.2383440e+04   2.2467662e+04   2.2563178e+04   2.2653388e+04   2.2732317e+04   2.2810971e+04   2.2887314e+04   2.2959979e+04   2.3028467e+04   2.3092927e+04   2.3153831e+04   2.3211809e+04   2.3239609e+04   2.3267408e+04   2.3293682e+04   2.3319890e+04   2.3346016e+04   2.3372042e+04   2.3397980e+04   2.3423896e+04   2.3449806e+04   2.3475766e+04   2.3501782e+04   2.3527948e+04   2.3554261e+04   2.3580829e+04   2.3607630e+04   2.3634770e+04   2.3662197e+04   2.3689999e+04   2.3718107e+04   2.3746647e+04   2.3775560e+04   2.3805055e+04   2.3835091e+04   2.3865945e+04   2.3897571e+04   2.3930256e+04   2.3963908e+04   2.3998747e+04   2.4034612e+04   2.4071673e+04   2.4109697e+04   2.4148960e+04   2.4189326e+04   2.4231268e+04   2.4274675e+04   2.4320052e+04   2.4367233e+04   2.4416619e+04   2.4467948e+04   2.4521371e+04   2.4576408e+04   2.4633061e+04   2.4690910e+04   2.4749999e+04   2.4809947e+04   2.4871144e+04   2.4933202e+04   2.5008439e+04   2.5098410e+04   2.5205837e+04   2.5328273e+04   2.5456993e+04   2.5580670e+04   2.5760417e+04   2.5946280e+04   2.6125340e+04   2.6334054e+04   2.6555506e+04   2.6786462e+04   2.7036970e+04   2.7296376e+04   2.7561645e+04   2.7830399e+04   2.8110037e+04   2.8397153e+04   2.8697915e+04   2.9007307e+04   2.9325618e+04   2.9648961e+04   2.9978103e+04   3.0310889e+04   3.0648244e+04   3.0988755e+04   3.1333088e+04   3.1680113e+04   3.2030096e+04   3.2382184e+04   3.2736516e+04   3.3092475e+04   3.3450160e+04   3.3809105e+04   3.4162104e+04   3.4509908e+04   3.4858321e+04   3.5208105e+04   3.5561716e+04
8.0370215e+03   8.4646116e+03   8.9245032e+03   9.3939180e+03   9.8550241e+03   1.0298376e+04   1.0723295e+04   1.1133814e+04   1.1538650e+04   1.1933046e+04   1.2303621e+04   1.2647453e+04   1.2983579e+04   1.3327504e+04   1.3694863e+04   1.4077842e+04   1.4450632e+04   1.4795043e+04   1.5116758e+04   1.5424710e+04   1.5724096e+04   1.6016090e+04   1.6301028e+04   1.6577153e+04   1.6844213e+04   1.7101866e+04   1.7352888e+04   1.7594582e+04   1.7820737e+04   1.8034719e+04   1.8242568e+04   1.8445498e+04   1.8644772e+04   1.8836405e+04   1.9020641e+04   1.9202146e+04   1.9383503e+04   1.9562377e+04   1.9738108e+04   1.9908048e+04   2.0072948e+04   2.0223055e+04   2.0359686e+04   2.0480363e+04   2.0589214e+04   2.0691403e+04   2.0789536e+04   2.0877547e+04   2.0957757e+04   2.1034562e+04   2.1109666e+04   2.1198031e+04   2.1297706e+04   2.1405456e+04   2.1518167e+04   2.1630508e+04   2.1741982e+04   2.1851875e+04   2.1960815e+04   2.2067591e+04   2.2172230e+04   2.2273415e+04   2.2369612e+04   2.2460993e+04   2.2555148e+04   2.2643354e+04   2.2731047e+04   2.2809848e+04   2.2882002e+04   2.2948314e+04   2.3011934e+04   2.3073945e+04   2.3131888e+04   2.3187186e+04   2.3214536e+04   2.3241887e+04   2.3268419e+04   2.3295149e+04   2.3321954e+04   2.3348771e+04   2.3375553e+04   2.3402301e+04   2.3429009e+04   2.3455707e+04   2.3482397e+04   2.3509132e+04   2.3535912e+04   2.3562798e+04   2.3589782e+04   2.3616931e+04   2.3644224e+04   2.3671817e+04   2.3699689e+04   2.3728118e+04   2.3757068e+04   2.3786880e+04   2.3817465e+04   2.3849107e+04   2.3881634e+04   2.3915171e+04   2.3949468e+04   2.3984472e+04   2.4019926e+04   2.4055479e+04   2.4091120e+04   2.4127881e+04   2.4166098e+04   2.4206550e+04   2.4249153e+04   2.4294359e+04   2.4341821e+04   2.4391730e+04   2.4443547e+04   2.4496586e+04   2.4550260e+04   2.4604880e+04   2.4660375e+04   2.4717066e+04   2.4774788e+04   2.4833940e+04   2.4894271e+04   2.4966991e+04   2.5056291e+04   2.5165765e+04   2.5291046e+04   2.5424131e+04   2.5553971e+04   2.5733672e+04   2.5916631e+04   2.6097645e+04   2.6306099e+04   2.6531269e+04   2.6768579e+04   2.7018656e+04   2.7273668e+04   2.7536168e+04   2.7804168e+04   2.8082055e+04   2.8367809e+04   2.8668455e+04   2.8979049e+04   2.9297903e+04   2.9621088e+04   2.9949649e+04   3.0281743e+04   3.0618424e+04   3.0958450e+04   3.1302461e+04   3.1649355e+04   3.1999322e+04   3.2351489e+04   3.2705993e+04   3.3062174e+04   3.3420115e+04   3.3779329e+04   3.4133960e+04   3.4484176e+04   3.4833193e+04   3.5182466e+04   3.5532836e+04
8.0413245e+03   8.4718347e+03   8.9349672e+03   9.4026069e+03   9.8513111e+03   1.0278493e+04   1.0691423e+04   1.1094395e+04   1.1490683e+04   1.1878010e+04   1.2242859e+04   1.2586690e+04   1.2931010e+04   1.3282806e+04   1.3652410e+04   1.4035716e+04   1.4406932e+04   1.4751394e+04   1.5074369e+04   1.5382033e+04   1.5680592e+04   1.5972801e+04   1.6259197e+04   1.6537653e+04   1.6806904e+04   1.7066897e+04   1.7320965e+04   1.7567400e+04   1.7797516e+04   1.8014008e+04   1.8223429e+04   1.8427481e+04   1.8627407e+04   1.8820052e+04   1.9005323e+04   1.9188208e+04   1.9370812e+04   1.9550924e+04   1.9728219e+04   1.9899851e+04   2.0066465e+04   2.0217149e+04   2.0352251e+04   2.0470967e+04   2.0577624e+04   2.0677809e+04   2.0774443e+04   2.0862593e+04   2.0943504e+04   2.1022997e+04   2.1102608e+04   2.1193122e+04   2.1293627e+04   2.1401168e+04   2.1512724e+04   2.1622850e+04   2.1731347e+04   2.1838929e+04   2.1946212e+04   2.2054497e+04   2.2163802e+04   2.2266071e+04   2.2362112e+04   2.2454326e+04   2.2547118e+04   2.2633322e+04   2.2719526e+04   2.2803213e+04   2.2886900e+04   2.2964590e+04   2.3038727e+04   2.3112709e+04   2.3176246e+04   2.3220021e+04   2.3242842e+04   2.3265663e+04   2.3288027e+04   2.3311085e+04   2.3334576e+04   2.3358369e+04   2.3382348e+04   2.3406499e+04   2.3430771e+04   2.3455208e+04   2.3479786e+04   2.3504577e+04   2.3529565e+04   2.3554844e+04   2.3580397e+04   2.3606329e+04   2.3632609e+04   2.3659349e+04   2.3686494e+04   2.3714137e+04   2.3742182e+04   2.3770694e+04   2.3799523e+04   2.3828708e+04   2.3858051e+04   2.3887586e+04   2.3917062e+04   2.3946522e+04   2.3975674e+04   2.4005924e+04   2.4038529e+04   2.4074715e+04   2.4114257e+04   2.4157021e+04   2.4202303e+04   2.4249861e+04   2.4298983e+04   2.4349472e+04   2.4400419e+04   2.4451574e+04   2.4503315e+04   2.4556662e+04   2.4611749e+04   2.4669043e+04   2.4728322e+04   2.4789930e+04   2.4853610e+04   2.4929858e+04   2.5023664e+04   2.5137470e+04   2.5267528e+04   2.5403881e+04   2.5528300e+04   2.5707521e+04   2.5888553e+04   2.6083033e+04   2.6291333e+04   2.6519147e+04   2.6760080e+04   2.7006747e+04   2.7256651e+04   2.7516661e+04   2.7784070e+04   2.8059839e+04   2.8344485e+04   2.8647495e+04   2.8960564e+04   2.9279828e+04   2.9602666e+04   2.9930425e+04   3.0261904e+04   3.0598150e+04   3.0937996e+04   3.1282052e+04   3.1629143e+04   3.1979370e+04   3.2331837e+04   3.2686661e+04   3.3043189e+04   3.3401457e+04   3.3760999e+04   3.4116937e+04   3.4470421e+04   3.4822237e+04   3.5172817e+04   3.5520996e+04
8.0628146e+03   8.4887349e+03   8.9460869e+03   9.4059116e+03   9.8416992e+03   1.0255360e+04   1.0658131e+04   1.1053101e+04   1.1439706e+04   1.1816707e+04   1.2175857e+04   1.2524977e+04   1.2877834e+04   1.3236500e+04   1.3607026e+04   1.3987889e+04   1.4353484e+04   1.4704574e+04   1.5030358e+04   1.5338023e+04   1.5636183e+04   1.5928846e+04   1.6217101e+04   1.6497824e+04   1.6768946e+04   1.7030838e+04   1.7287848e+04   1.7539541e+04   1.7775004e+04   1.7994413e+04   1.8205568e+04   1.8410756e+04   1.8611416e+04   1.8805365e+04   1.8992262e+04   1.9176141e+04   1.9358899e+04   1.9539297e+04   1.9717362e+04   1.9891066e+04   2.0060515e+04   2.0212822e+04   2.0347919e+04   2.0465816e+04   2.0571072e+04   2.0669318e+04   2.0764008e+04   2.0851304e+04   2.0931983e+04   2.1012458e+04   2.1094251e+04   2.1186135e+04   2.1286321e+04   2.1393224e+04   2.1504404e+04   2.1614625e+04   2.1723342e+04   2.1829632e+04   2.1934700e+04   2.2042678e+04   2.2154079e+04   2.2256119e+04   2.2353262e+04   2.2450560e+04   2.2542767e+04   2.2628852e+04   2.2714937e+04   2.2798499e+04   2.2882061e+04   2.2959603e+04   2.3037145e+04   2.3112158e+04   2.3181985e+04   2.3225864e+04   2.3248235e+04   2.3270606e+04   2.3293125e+04   2.3315638e+04   2.3338206e+04   2.3360886e+04   2.3383681e+04   2.3406643e+04   2.3429757e+04   2.3453095e+04   2.3476638e+04   2.3500492e+04   2.3524637e+04   2.3549207e+04   2.3574176e+04   2.3599671e+04   2.3625640e+04   2.3652158e+04   2.3679127e+04   2.3706542e+04   2.3734274e+04   2.3762257e+04   2.3790352e+04   2.3818494e+04   2.3846563e+04   2.3874551e+04   2.3902369e+04   2.3930106e+04   2.3957703e+04   2.3987796e+04   2.4021380e+04   2.4058777e+04   2.4099373e+04   2.4142771e+04   2.4188281e+04   2.4235492e+04   2.4283795e+04   2.4332731e+04   2.4381707e+04   2.4431106e+04   2.4481410e+04   2.4533652e+04   2.4588028e+04   2.4644836e+04   2.4703878e+04   2.4765627e+04   2.4829872e+04   2.4907013e+04   2.5002312e+04   2.5117303e+04   2.5248078e+04   2.5382255e+04   2.5500643e+04   2.5680273e+04   2.5866739e+04   2.6065968e+04   2.6274136e+04   2.6504823e+04   2.6747582e+04   2.6993292e+04   2.7243565e+04   2.7504916e+04   2.7774449e+04   2.8051529e+04   2.8338399e+04   2.8643852e+04   2.8958108e+04   2.9277166e+04   2.9599595e+04   2.9926834e+04   3.0258162e+04   3.0594362e+04   3.0934430e+04   3.1278787e+04   3.1626346e+04   3.1976987e+04   3.2329932e+04   3.2685178e+04   3.3042190e+04   3.3400879e+04   3.3760864e+04   3.4118855e+04   3.4476788e+04   3.4833601e+04   3.5187359e+04   3.5529987e+04
8.1058379e+03   8.5154838e+03   8.9579798e+03   9.4033592e+03   9.8257340e+03   1.0228194e+04   1.0622143e+04   1.1008396e+04   1.1384731e+04   1.1750506e+04   1.2106250e+04   1.2462159e+04   1.2822841e+04   1.3187281e+04   1.3559187e+04   1.3935625e+04   1.4296459e+04   1.4657220e+04   1.4984636e+04   1.5293713e+04   1.5592701e+04   1.5886766e+04   1.6176906e+04   1.6459334e+04   1.6731608e+04   1.6994693e+04   1.7253743e+04   1.7509716e+04   1.7750370e+04   1.7973512e+04   1.8186795e+04   1.8393295e+04   1.8594732e+04   1.8789995e+04   1.8979315e+04   1.9165239e+04   1.9347905e+04   1.9527650e+04   1.9705855e+04   1.9881305e+04   2.0053649e+04   2.0209240e+04   2.0346000e+04   2.0464371e+04   2.0569064e+04   2.0666350e+04   2.0760052e+04   2.0846564e+04   2.0926361e+04   2.1007185e+04   2.1090622e+04   2.1182007e+04   2.1279473e+04   2.1383456e+04   2.1492882e+04   2.1603007e+04   2.1712498e+04   2.1819516e+04   2.1924770e+04   2.2032314e+04   2.2142288e+04   2.2246753e+04   2.2346648e+04   2.2446793e+04   2.2538415e+04   2.2624382e+04   2.2710349e+04   2.2793785e+04   2.2877221e+04   2.2954615e+04   2.3032010e+04   2.3106866e+04   2.3179487e+04   2.3228148e+04   2.3251009e+04   2.3273870e+04   2.3296462e+04   2.3318962e+04   2.3341426e+04   2.3363875e+04   2.3386319e+04   2.3408813e+04   2.3431366e+04   2.3454089e+04   2.3476986e+04   2.3500200e+04   2.3523731e+04   2.3547730e+04   2.3572173e+04   2.3597169e+04   2.3622641e+04   2.3648612e+04   2.3674960e+04   2.3701630e+04   2.3728487e+04   2.3755444e+04   2.3782377e+04   2.3809268e+04   2.3836022e+04   2.3862803e+04   2.3889596e+04   2.3916762e+04   2.3944337e+04   2.3974869e+04   2.4009180e+04   2.4047321e+04   2.4088536e+04   2.4132164e+04   2.4177478e+04   2.4224050e+04   2.4271522e+04   2.4319605e+04   2.4367866e+04   2.4417148e+04   2.4467917e+04   2.4520876e+04   2.4575990e+04   2.4633405e+04   2.4692841e+04   2.4754677e+04   2.4818854e+04   2.4895080e+04   2.4989044e+04   2.5102552e+04   2.5231188e+04   2.5364743e+04   2.5493134e+04   2.5672545e+04   2.5859699e+04   2.6058381e+04   2.6266741e+04   2.6493343e+04   2.6731913e+04   2.6975974e+04   2.7227839e+04   2.7489773e+04   2.7760877e+04   2.8037710e+04   2.8325756e+04   2.8632281e+04   2.8947920e+04   2.9266483e+04   2.9588885e+04   2.9915612e+04   3.0247347e+04   3.0583568e+04   3.0924345e+04   3.1269102e+04   3.1617571e+04   3.1968750e+04   3.2322508e+04   3.2678264e+04   3.3035966e+04   3.3395060e+04   3.3755578e+04   3.4115817e+04   3.4476862e+04   3.4835879e+04   3.5193005e+04   3.5541879e+04
8.1627766e+03   8.5544253e+03   8.9750943e+03   9.3995713e+03   9.8065255e+03   1.0198096e+04   1.0583316e+04   1.0960137e+04   1.1326424e+04   1.1684820e+04   1.2040711e+04   1.2402379e+04   1.2766085e+04   1.3132306e+04   1.3502761e+04   1.3872595e+04   1.4238328e+04   1.4600528e+04   1.4932415e+04   1.5247108e+04   1.5551301e+04   1.5849055e+04   1.6141661e+04   1.6425390e+04   1.6698013e+04   1.6961534e+04   1.7222221e+04   1.7481573e+04   1.7727127e+04   1.7953931e+04   1.8169180e+04   1.8376731e+04   1.8578795e+04   1.8775478e+04   1.8967694e+04   1.9155639e+04   1.9337908e+04   1.9516643e+04   1.9694973e+04   1.9872450e+04   2.0047972e+04   2.0207330e+04   2.0346500e+04   2.0465677e+04   2.0570073e+04   2.0666524e+04   2.0759094e+04   2.0843997e+04   2.0921962e+04   2.1002188e+04   2.1085754e+04   2.1174633e+04   2.1267680e+04   2.1367781e+04   2.1474971e+04   2.1584828e+04   2.1694939e+04   2.1803264e+04   2.1910109e+04   2.2017626e+04   2.2125859e+04   2.2232015e+04   2.2332185e+04   2.2436853e+04   2.2526962e+04   2.2614805e+04   2.2703827e+04   2.2791321e+04   2.2874340e+04   2.2953189e+04   2.3028930e+04   2.3103737e+04   2.3176568e+04   2.3229395e+04   2.3253176e+04   2.3276957e+04   2.3300352e+04   2.3323624e+04   2.3346689e+04   2.3369389e+04   2.3391725e+04   2.3413748e+04   2.3435555e+04   2.3457366e+04   2.3479288e+04   2.3501544e+04   2.3524174e+04   2.3547280e+04   2.3570789e+04   2.3594708e+04   2.3618918e+04   2.3643429e+04   2.3668129e+04   2.3693042e+04   2.3718038e+04   2.3743143e+04   2.3768147e+04   2.3793212e+04   2.3818350e+04   2.3844095e+04   2.3870527e+04   2.3898307e+04   2.3927472e+04   2.3959982e+04   2.3996270e+04   2.4036083e+04   2.4078461e+04   2.4122651e+04   2.4168115e+04   2.4214639e+04   2.4261755e+04   2.4309273e+04   2.4357148e+04   2.4406679e+04   2.4458517e+04   2.4512876e+04   2.4569247e+04   2.4627470e+04   2.4687302e+04   2.4749161e+04   2.4813104e+04   2.4887589e+04   2.4978971e+04   2.5089787e+04   2.5216961e+04   2.5352553e+04   2.5487031e+04   2.5666128e+04   2.5853780e+04   2.6051926e+04   2.6260099e+04   2.6481518e+04   2.6715329e+04   2.6957352e+04   2.7209298e+04   2.7470366e+04   2.7741610e+04   2.8020168e+04   2.8310774e+04   2.8615650e+04   2.8929618e+04   2.9246532e+04   2.9568251e+04   2.9894230e+04   3.0226074e+04   3.0562145e+04   3.0903325e+04   3.1248183e+04   3.1597094e+04   3.1948285e+04   3.2302312e+04   3.2658408e+04   3.3016550e+04   3.3375782e+04   3.3736525e+04   3.4097677e+04   3.4460142e+04   3.4821802e+04   3.5184730e+04   3.5546620e+04
8.2244358e+03   8.6064565e+03   9.0019109e+03   9.4008326e+03   9.7897413e+03   1.0169864e+04   1.0545372e+04   1.0913010e+04   1.1272700e+04   1.1628803e+04   1.1986531e+04   1.2349583e+04   1.2711286e+04   1.3074787e+04   1.3440630e+04   1.3804780e+04   1.4175679e+04   1.4539226e+04   1.4878941e+04   1.5203507e+04   1.5516019e+04   1.5818916e+04   1.6113810e+04   1.6397830e+04   1.6669904e+04   1.6933192e+04   1.7193976e+04   1.7454476e+04   1.7703490e+04   1.7933643e+04   1.8150654e+04   1.8359129e+04   1.8561706e+04   1.8759563e+04   1.8954868e+04   1.9145414e+04   1.9328248e+04   1.9507213e+04   1.9686357e+04   1.9866089e+04   2.0045060e+04   2.0208934e+04   2.0351034e+04   2.0471149e+04   2.0575042e+04   2.0670111e+04   2.0760639e+04   2.0843235e+04   2.0919078e+04   2.0997646e+04   2.1079810e+04   2.1166101e+04   2.1255632e+04   2.1352336e+04   2.1456810e+04   2.1565305e+04   2.1674731e+04   2.1782938e+04   2.1890043e+04   2.1997055e+04   2.2105506e+04   2.2215379e+04   2.2324350e+04   2.2435022e+04   2.2524439e+04   2.2610177e+04   2.2698662e+04   2.2787423e+04   2.2869915e+04   2.2947801e+04   2.3023904e+04   2.3099390e+04   2.3170891e+04   2.3232752e+04   2.3259573e+04   2.3286395e+04   2.3310008e+04   2.3333567e+04   2.3356582e+04   2.3378775e+04   2.3400231e+04   2.3420862e+04   2.3440927e+04   2.3460900e+04   2.3481000e+04   2.3501627e+04   2.3522760e+04   2.3544237e+04   2.3565886e+04   2.3587510e+04   2.3609054e+04   2.3630650e+04   2.3652283e+04   2.3674171e+04   2.3696171e+04   2.3718374e+04   2.3740683e+04   2.3764241e+04   2.3789106e+04   2.3815872e+04   2.3844431e+04   2.3875226e+04   2.3908087e+04   2.3944005e+04   2.3982952e+04   2.4024529e+04   2.4068001e+04   2.4112957e+04   2.4158975e+04   2.4205555e+04   2.4252411e+04   2.4299726e+04   2.4347790e+04   2.4397953e+04   2.4450586e+04   2.4505575e+04   2.4562317e+04   2.4620625e+04   2.4680321e+04   2.4741826e+04   2.4805291e+04   2.4878087e+04   2.4966686e+04   2.5074518e+04   2.5200531e+04   2.5338398e+04   2.5484079e+04   2.5662628e+04   2.5851218e+04   2.6048579e+04   2.6256797e+04   2.6475337e+04   2.6708396e+04   2.6949346e+04   2.7201993e+04   2.7462309e+04   2.7734426e+04   2.8012252e+04   2.8303003e+04   2.8606267e+04   2.8918583e+04   2.9233462e+04   2.9554902e+04   2.9880223e+04   3.0212468e+04   3.0548411e+04   3.0890030e+04   3.1235137e+04   3.1586637e+04   3.1939425e+04   3.2291609e+04   3.2645990e+04   3.3004499e+04   3.3363818e+04   3.3724795e+04   3.4086254e+04   3.4449292e+04   3.4812737e+04   3.5181000e+04   3.5550632e+04
8.2862843e+03   8.6673457e+03   9.0404319e+03   9.4121133e+03   9.7807423e+03   1.0147623e+04   1.0513077e+04   1.0874399e+04   1.1232222e+04   1.1589217e+04   1.1946769e+04   1.2304742e+04   1.2659031e+04   1.3013960e+04   1.3371627e+04   1.3731821e+04   1.4104902e+04   1.4476216e+04   1.4829823e+04   1.5167406e+04   1.5490017e+04   1.5798551e+04   1.6094919e+04   1.6378390e+04   1.6649344e+04   1.6911842e+04   1.7172703e+04   1.7433257e+04   1.7683777e+04   1.7916677e+04   1.8135331e+04   1.8344679e+04   1.8547648e+04   1.8746566e+04   1.8944150e+04   1.9136464e+04   1.9320249e+04   1.9500187e+04   1.9681137e+04   1.9863603e+04   2.0045763e+04   2.0213793e+04   2.0359330e+04   2.0480543e+04   2.0583526e+04   2.0676176e+04   2.0763550e+04   2.0843101e+04   2.0916100e+04   2.0992253e+04   2.1072614e+04   2.1156918e+04   2.1243557e+04   2.1337139e+04   2.1439146e+04   2.1545879e+04   2.1653609e+04   2.1760543e+04   2.1866602e+04   2.1972949e+04   2.2081755e+04   2.2195158e+04   2.2315144e+04   2.2436721e+04   2.2526502e+04   2.2610173e+04   2.2696966e+04   2.2785078e+04   2.2866928e+04   2.2943910e+04   2.3020242e+04   2.3095855e+04   2.3166302e+04   2.3241101e+04   2.3276204e+04   2.3311308e+04   2.3330039e+04   2.3348749e+04   2.3367166e+04   2.3385355e+04   2.3403423e+04   2.3421207e+04   2.3438890e+04   2.3456656e+04   2.3474602e+04   2.3492918e+04   2.3511406e+04   2.3529885e+04   2.3548271e+04   2.3566485e+04   2.3584680e+04   2.3602927e+04   2.3621308e+04   2.3640130e+04   2.3659347e+04   2.3680982e+04   2.3705192e+04   2.3731937e+04   2.3760242e+04   2.3790263e+04   2.3821930e+04   2.3855678e+04   2.3891518e+04   2.3929782e+04   2.3970070e+04   2.4012257e+04   2.4056007e+04   2.4101043e+04   2.4147011e+04   2.4193605e+04   2.4240773e+04   2.4288774e+04   2.4337895e+04   2.4388724e+04   2.4441353e+04   2.4495891e+04   2.4552064e+04   2.4609826e+04   2.4669038e+04   2.4730058e+04   2.4793043e+04   2.4864409e+04   2.4950581e+04   2.5056364e+04   2.5182003e+04   2.5320527e+04   2.5474245e+04   2.5652582e+04   2.5842049e+04   2.6039176e+04   2.6247402e+04   2.6464303e+04   2.6697580e+04   2.6938228e+04   2.7191635e+04   2.7451662e+04   2.7724855e+04   2.8003845e+04   2.8296062e+04   2.8596232e+04   2.8904981e+04   2.9217516e+04   2.9538548e+04   2.9862844e+04   3.0194941e+04   3.0531429e+04   3.0874130e+04   3.1219553e+04   3.1574139e+04   3.1929427e+04   3.2279162e+04   3.2630891e+04   3.2989458e+04   3.3348362e+04   3.3709038e+04   3.4070953e+04   3.4434630e+04   3.4799500e+04   3.5173121e+04   3.5549135e+04
8.3347443e+03   8.7230569e+03   9.0844684e+03   9.4354626e+03   9.7851721e+03   1.0138491e+04   1.0495803e+04   1.0854706e+04   1.1214002e+04   1.1571248e+04   1.1924295e+04   1.2271752e+04   1.2613715e+04   1.2956483e+04   1.3303984e+04   1.3661373e+04   1.4037019e+04   1.4416635e+04   1.4784464e+04   1.5136719e+04   1.5470889e+04   1.5785928e+04   1.6084238e+04   1.6367443e+04   1.6637425e+04   1.6899399e+04   1.7159863e+04   1.7419271e+04   1.7669959e+04   1.7904374e+04   1.8124348e+04   1.8334476e+04   1.8537783e+04   1.8737213e+04   1.8935507e+04   1.9128567e+04   1.9314028e+04   1.9496437e+04   1.9679957e+04   1.9864847e+04   2.0049323e+04   2.0220889e+04   2.0369908e+04   2.0492440e+04   2.0594822e+04   2.0685865e+04   2.0771097e+04   2.0847660e+04   2.0917372e+04   2.0991064e+04   2.1069383e+04   2.1150845e+04   2.1234272e+04   2.1325470e+04   2.1425556e+04   2.1530293e+04   2.1635861e+04   2.1741006e+04   2.1845492e+04   2.1950487e+04   2.2057151e+04   2.2172887e+04   2.2303158e+04   2.2436236e+04   2.2525243e+04   2.2608685e+04   2.2696105e+04   2.2783480e+04   2.2865665e+04   2.2942963e+04   2.3019122e+04   2.3094329e+04   2.3165330e+04   2.3238680e+04   2.3273380e+04   2.3308080e+04   2.3327710e+04   2.3345393e+04   2.3362318e+04   2.3378962e+04   2.3395576e+04   2.3412611e+04   2.3430172e+04   2.3448210e+04   2.3466577e+04   2.3485198e+04   2.3504008e+04   2.3522954e+04   2.3541995e+04   2.3560922e+04   2.3579650e+04   2.3598214e+04   2.3616685e+04   2.3635510e+04   2.3654930e+04   2.3675266e+04   2.3696715e+04   2.3720384e+04   2.3746723e+04   2.3776270e+04   2.3808782e+04   2.3844229e+04   2.3881307e+04   2.3919652e+04   2.3959148e+04   2.4000080e+04   2.4042658e+04   2.4086698e+04   2.4131836e+04   2.4178026e+04   2.4225985e+04   2.4275818e+04   2.4326402e+04   2.4377795e+04   2.4430193e+04   2.4484022e+04   2.4539425e+04   2.4596550e+04   2.4655301e+04   2.4715951e+04   2.4778595e+04   2.4849025e+04   2.4933761e+04   2.5038082e+04   2.5163014e+04   2.5301314e+04   2.5463647e+04   2.5641534e+04   2.5831947e+04   2.6028738e+04   2.6237107e+04   2.6452504e+04   2.6686632e+04   2.6927167e+04   2.7181487e+04   2.7441225e+04   2.7715641e+04   2.7996188e+04   2.8291424e+04   2.8589245e+04   2.8893293e+04   2.9204082e+04   2.9529505e+04   2.9855415e+04   3.0185214e+04   3.0523375e+04   3.0868344e+04   3.1211958e+04   3.1565274e+04   3.1921700e+04   3.2271528e+04   3.2623330e+04   3.2986805e+04   3.3348147e+04   3.3704390e+04   3.4063716e+04   3.4427517e+04   3.4793095e+04   3.5166925e+04   3.5543257e+04
8.3526400e+03   8.7536051e+03   9.1180973e+03   9.4642944e+03   9.8062959e+03   1.0152789e+04   1.0506300e+04   1.0865028e+04   1.1224472e+04   1.1578153e+04   1.1922391e+04   1.2256248e+04   1.2584018e+04   1.2913042e+04   1.3250020e+04   1.3603426e+04   1.3982854e+04   1.4370327e+04   1.4752202e+04   1.5118073e+04   1.5461972e+04   1.5782730e+04   1.6083117e+04   1.6366573e+04   1.6636172e+04   1.6897693e+04   1.7157538e+04   1.7415132e+04   1.7664155e+04   1.7898792e+04   1.8119593e+04   1.8330458e+04   1.8534028e+04   1.8733509e+04   1.8931069e+04   1.9123868e+04   1.9311184e+04   1.9496561e+04   1.9682759e+04   1.9869608e+04   2.0056786e+04   2.0231646e+04   2.0382249e+04   2.0505272e+04   2.0607443e+04   2.0697689e+04   2.0781491e+04   2.0855861e+04   2.0923323e+04   2.0994133e+04   2.1069349e+04   2.1148064e+04   2.1228985e+04   2.1318397e+04   2.1416735e+04   2.1519218e+04   2.1622988e+04   2.1726874e+04   2.1829477e+04   2.1931689e+04   2.2037678e+04   2.2153467e+04   2.2290911e+04   2.2429311e+04   2.2521191e+04   2.2608049e+04   2.2694281e+04   2.2779398e+04   2.2861474e+04   2.2939405e+04   2.3015843e+04   2.3091086e+04   2.3164349e+04   2.3236724e+04   2.3271584e+04   2.3306444e+04   2.3323533e+04   2.3340619e+04   2.3357455e+04   2.3374064e+04   2.3390525e+04   2.3407335e+04   2.3424770e+04   2.3442827e+04   2.3461312e+04   2.3480033e+04   2.3498846e+04   2.3517691e+04   2.3536552e+04   2.3555322e+04   2.3573963e+04   2.3592508e+04   2.3611023e+04   2.3629888e+04   2.3649320e+04   2.3669550e+04   2.3690105e+04   2.3713226e+04   2.3740108e+04   2.3771009e+04   2.3804668e+04   2.3840002e+04   2.3876049e+04   2.3912855e+04   2.3950548e+04   2.3989951e+04   2.4031234e+04   2.4074193e+04   2.4118510e+04   2.4164796e+04   2.4213606e+04   2.4264122e+04   2.4315130e+04   2.4366618e+04   2.4418696e+04   2.4471969e+04   2.4526747e+04   2.4583325e+04   2.4641651e+04   2.4702010e+04   2.4764387e+04   2.4834352e+04   2.4918303e+04   2.5022004e+04   2.5146039e+04   2.5284048e+04   2.5447369e+04   2.5624951e+04   2.5816223e+04   2.6012926e+04   2.6221381e+04   2.6435770e+04   2.6671000e+04   2.6911799e+04   2.7167057e+04   2.7426812e+04   2.7702552e+04   2.7984937e+04   2.8281958e+04   2.8578396e+04   2.8879866e+04   2.9190366e+04   2.9522373e+04   2.9851873e+04   3.0179773e+04   3.0518418e+04   3.0864345e+04   3.1206236e+04   3.1557796e+04   3.1914335e+04   3.2264437e+04   3.2617449e+04   3.2987908e+04   3.3354628e+04   3.3706362e+04   3.4060587e+04   3.4422976e+04   3.4787605e+04   3.5158841e+04   3.5533022e+04
8.3273191e+03   8.7475861e+03   9.1305572e+03   9.4925293e+03   9.8457464e+03   1.0198109e+04   1.0553580e+04   1.0911299e+04   1.1266416e+04   1.1612798e+04   1.1946256e+04   1.2267992e+04   1.2583407e+04   1.2900420e+04   1.3227033e+04   1.3577249e+04   1.3956929e+04   1.4344384e+04   1.4734385e+04   1.5108902e+04   1.5459965e+04   1.5785947e+04   1.6089941e+04   1.6375550e+04   1.6645456e+04   1.6906453e+04   1.7165586e+04   1.7421236e+04   1.7668068e+04   1.7901798e+04   1.8122905e+04   1.8334284e+04   1.8538206e+04   1.8737327e+04   1.8932845e+04   1.9124261e+04   1.9312712e+04   1.9500458e+04   1.9688973e+04   1.9878143e+04   2.0068130e+04   2.0244386e+04   2.0394891e+04   2.0517526e+04   2.0619421e+04   2.0708890e+04   2.0791266e+04   2.0864104e+04   2.0930236e+04   2.0999623e+04   2.1073019e+04   2.1149792e+04   2.1229014e+04   2.1317220e+04   2.1414034e+04   2.1515327e+04   2.1618695e+04   2.1721654e+04   2.1822716e+04   2.1924704e+04   2.2029734e+04   2.2150424e+04   2.2282515e+04   2.2427192e+04   2.2520988e+04   2.2609602e+04   2.2694492e+04   2.2777437e+04   2.2858974e+04   2.2937174e+04   2.3013857e+04   2.3089158e+04   2.3163346e+04   2.3234768e+04   2.3269787e+04   2.3304808e+04   2.3321547e+04   2.3338226e+04   2.3354802e+04   2.3371275e+04   2.3387663e+04   2.3404399e+04   2.3421803e+04   2.3439857e+04   2.3458373e+04   2.3477103e+04   2.3495851e+04   2.3514532e+04   2.3533139e+04   2.3551683e+04   2.3570193e+04   2.3588759e+04   2.3607403e+04   2.3626345e+04   2.3645852e+04   2.3665842e+04   2.3686031e+04   2.3708903e+04   2.3736718e+04   2.3768541e+04   2.3802638e+04   2.3837619e+04   2.3872702e+04   2.3908457e+04   2.3945176e+04   2.3983716e+04   2.4024035e+04   2.4066097e+04   2.4109669e+04   2.4155512e+04   2.4203837e+04   2.4253786e+04   2.4304447e+04   2.4355790e+04   2.4407815e+04   2.4460969e+04   2.4515473e+04   2.4571704e+04   2.4629763e+04   2.4689964e+04   2.4752191e+04   2.4822388e+04   2.4907310e+04   2.5011500e+04   2.5133801e+04   2.5270644e+04   2.5429245e+04   2.5607045e+04   2.5798007e+04   2.5994879e+04   2.6203398e+04   2.6418686e+04   2.6654247e+04   2.6896045e+04   2.7152192e+04   2.7415391e+04   2.7694923e+04   2.7977494e+04   2.8276034e+04   2.8577305e+04   2.8875684e+04   2.9181831e+04   2.9514500e+04   2.9849153e+04   3.0180684e+04   3.0515616e+04   3.0856938e+04   3.1200619e+04   3.1555279e+04   3.1913691e+04   3.2262758e+04   3.2610537e+04   3.2979921e+04   3.3353641e+04   3.3708810e+04   3.4061760e+04   3.4422512e+04   3.4787262e+04   3.5157484e+04   3.5524384e+04
8.2746733e+03   8.7167746e+03   9.1311234e+03   9.5236863e+03   9.9015752e+03   1.0270169e+04   1.0632816e+04   1.0990020e+04   1.1339914e+04   1.1679475e+04   1.2006719e+04   1.2323295e+04   1.2634158e+04   1.2945079e+04   1.3265602e+04   1.3606311e+04   1.3969628e+04   1.4352197e+04   1.4742966e+04   1.5120159e+04   1.5472968e+04   1.5801456e+04   1.6108531e+04   1.6397323e+04   1.6667854e+04   1.6927451e+04   1.7184068e+04   1.7436252e+04   1.7679824e+04   1.7911991e+04   1.8132820e+04   1.8344441e+04   1.8548636e+04   1.8747083e+04   1.8940252e+04   1.9129939e+04   1.9318851e+04   1.9508266e+04   1.9698894e+04   1.9890386e+04   2.0082401e+04   2.0258536e+04   2.0407500e+04   2.0529292e+04   2.0631372e+04   2.0721342e+04   2.0804136e+04   2.0877100e+04   2.0943107e+04   2.1011986e+04   2.1084406e+04   2.1159694e+04   2.1236962e+04   2.1323299e+04   2.1419170e+04   2.1520571e+04   2.1624289e+04   2.1727052e+04   2.1828006e+04   2.1930427e+04   2.2041985e+04   2.2165110e+04   2.2289124e+04   2.2420477e+04   2.2514624e+04   2.2603354e+04   2.2687075e+04   2.2768974e+04   2.2850066e+04   2.2928421e+04   2.3005272e+04   2.3080585e+04   2.3155139e+04   2.3232811e+04   2.3267991e+04   2.3303171e+04   2.3320276e+04   2.3336612e+04   2.3352732e+04   2.3368876e+04   2.3385134e+04   2.3402060e+04   2.3419628e+04   2.3437683e+04   2.3456068e+04   2.3474565e+04   2.3493007e+04   2.3511348e+04   2.3529598e+04   2.3547851e+04   2.3566345e+04   2.3585156e+04   2.3604244e+04   2.3623857e+04   2.3643548e+04   2.3663236e+04   2.3682864e+04   2.3706380e+04   2.3734013e+04   2.3764726e+04   2.3797494e+04   2.3831167e+04   2.3865937e+04   2.3902064e+04   2.3939299e+04   2.3977973e+04   2.4018208e+04   2.4060015e+04   2.4103125e+04   2.4148388e+04   2.4195880e+04   2.4244924e+04   2.4295231e+04   2.4346788e+04   2.4399203e+04   2.4452727e+04   2.4507417e+04   2.4563785e+04   2.4621904e+04   2.4682148e+04   2.4744445e+04   2.4816289e+04   2.4903303e+04   2.5007543e+04   2.5128229e+04   2.5263060e+04   2.5412505e+04   2.5590313e+04   2.5780744e+04   2.5977592e+04   2.6186161e+04   2.6402309e+04   2.6637960e+04   2.6880447e+04   2.7137210e+04   2.7404782e+04   2.7688703e+04   2.7971677e+04   2.8273932e+04   2.8579667e+04   2.8872009e+04   2.9171263e+04   2.9502602e+04   2.9842592e+04   3.0178658e+04   3.0510098e+04   3.0846980e+04   3.1192416e+04   3.1550667e+04   3.1911066e+04   3.2257941e+04   3.2599383e+04   3.2966605e+04   3.3345618e+04   3.3704152e+04   3.4058351e+04   3.4419321e+04   3.4785598e+04   3.5156317e+04   3.5518182e+04
8.2160352e+03   8.6902794e+03   9.1400491e+03   9.5626568e+03   9.9650346e+03   1.0352182e+04   1.0726325e+04   1.1088355e+04   1.1439706e+04   1.1782563e+04   1.2117923e+04   1.2445382e+04   1.2764751e+04   1.3078370e+04   1.3391589e+04   1.3715845e+04   1.4061471e+04   1.4422743e+04   1.4796294e+04   1.5162601e+04   1.5509479e+04   1.5834203e+04   1.6142585e+04   1.6434974e+04   1.6707004e+04   1.6963916e+04   1.7214579e+04   1.7460023e+04   1.7698843e+04   1.7928513e+04   1.8148475e+04   1.8359876e+04   1.8564196e+04   1.8762018e+04   1.8953306e+04   1.9141540e+04   1.9330222e+04   1.9520383e+04   1.9712321e+04   1.9905159e+04   2.0098538e+04   2.0274049e+04   2.0421885e+04   2.0542783e+04   2.0644773e+04   2.0735667e+04   2.0819801e+04   2.0893190e+04   2.0958955e+04   2.1028214e+04   2.1101789e+04   2.1176547e+04   2.1251222e+04   2.1335813e+04   2.1431399e+04   2.1533097e+04   2.1637176e+04   2.1740574e+04   2.1842548e+04   2.1948263e+04   2.2063729e+04   2.2184946e+04   2.2304146e+04   2.2424527e+04   2.2518556e+04   2.2608090e+04   2.2692156e+04   2.2774154e+04   2.2853876e+04   2.2932382e+04   2.3009084e+04   2.3084521e+04   2.3157807e+04   2.3230854e+04   2.3266194e+04   2.3301536e+04   2.3317729e+04   2.3334683e+04   2.3352178e+04   2.3369993e+04   2.3387958e+04   2.3406178e+04   2.3424427e+04   2.3442665e+04   2.3460911e+04   2.3479049e+04   2.3497036e+04   2.3514893e+04   2.3532663e+04   2.3550808e+04   2.3569559e+04   2.3589194e+04   2.3609483e+04   2.3629744e+04   2.3649476e+04   2.3668861e+04   2.3688014e+04   2.3708959e+04   2.3732616e+04   2.3759364e+04   2.3789015e+04   2.3821699e+04   2.3857014e+04   2.3894223e+04   2.3932622e+04   2.3972402e+04   2.4013473e+04   2.4055740e+04   2.4099061e+04   2.4144339e+04   2.4191262e+04   2.4239879e+04   2.4290288e+04   2.4342218e+04   2.4395271e+04   2.4449543e+04   2.4504962e+04   2.4561934e+04   2.4620494e+04   2.4681111e+04   2.4743744e+04   2.4817269e+04   2.4905740e+04   2.5010489e+04   2.5131017e+04   2.5263600e+04   2.5404749e+04   2.5583108e+04   2.5771731e+04   2.5969063e+04   2.6177140e+04   2.6395878e+04   2.6630261e+04   2.6873903e+04   2.7130407e+04   2.7397163e+04   2.7679007e+04   2.7970969e+04   2.8280232e+04   2.8582428e+04   2.8876258e+04   2.9182050e+04   2.9508042e+04   2.9845824e+04   3.0183916e+04   3.0516792e+04   3.0853293e+04   3.1201165e+04   3.1559069e+04   3.1911490e+04   3.2255192e+04   3.2605359e+04   3.2972482e+04   3.3341981e+04   3.3699810e+04   3.4056559e+04   3.4417672e+04   3.4782365e+04   3.5151208e+04   3.5517077e+04
8.1944450e+03   8.6970611e+03   9.1669076e+03   9.6063204e+03   1.0024519e+04   1.0426662e+04   1.0813957e+04   1.1186217e+04   1.1546366e+04   1.1900702e+04   1.2252458e+04   1.2598601e+04   1.2934205e+04   1.3257965e+04   1.3573754e+04   1.3894542e+04   1.4224542e+04   1.4556848e+04   1.4892950e+04   1.5233192e+04   1.5565670e+04   1.5882436e+04   1.6187348e+04   1.6479453e+04   1.6752490e+04   1.7007424e+04   1.7251711e+04   1.7489556e+04   1.7722822e+04   1.7949333e+04   1.8167842e+04   1.8378595e+04   1.8582692e+04   1.8779841e+04   1.8970028e+04   1.9157326e+04   1.9345188e+04   1.9535083e+04   1.9726975e+04   1.9919926e+04   2.0113049e+04   2.0288044e+04   2.0436816e+04   2.0558432e+04   2.0660214e+04   2.0751253e+04   2.0836490e+04   2.0911141e+04   2.0977662e+04   2.1049846e+04   2.1128450e+04   2.1204910e+04   2.1277416e+04   2.1359541e+04   2.1453155e+04   2.1553749e+04   2.1657714e+04   2.1761690e+04   2.1865639e+04   2.1975349e+04   2.2091405e+04   2.2205929e+04   2.2316627e+04   2.2429138e+04   2.2520653e+04   2.2609039e+04   2.2693459e+04   2.2776005e+04   2.2855488e+04   2.2933809e+04   2.3009950e+04   2.3084973e+04   2.3152910e+04   2.3214186e+04   2.3245216e+04   2.3276246e+04   2.3295530e+04   2.3315153e+04   2.3334987e+04   2.3354870e+04   2.3374687e+04   2.3394289e+04   2.3413591e+04   2.3432637e+04   2.3451510e+04   2.3470217e+04   2.3488770e+04   2.3507213e+04   2.3525585e+04   2.3544283e+04   2.3563408e+04   2.3583501e+04   2.3604296e+04   2.3625404e+04   2.3646598e+04   2.3668809e+04   2.3692108e+04   2.3716399e+04   2.3741739e+04   2.3768618e+04   2.3797134e+04   2.3828030e+04   2.3861156e+04   2.3896850e+04   2.3934660e+04   2.3974491e+04   2.4015881e+04   2.4059052e+04   2.4103670e+04   2.4149190e+04   2.4195502e+04   2.4243343e+04   2.4292860e+04   2.4344328e+04   2.4397461e+04   2.4452247e+04   2.4508411e+04   2.4566258e+04   2.4625684e+04   2.4686993e+04   2.4750072e+04   2.4824755e+04   2.4914336e+04   2.5021383e+04   2.5142631e+04   2.5272750e+04   2.5403183e+04   2.5580453e+04   2.5766941e+04   2.5963853e+04   2.6171479e+04   2.6391243e+04   2.6624256e+04   2.6867875e+04   2.7123685e+04   2.7388237e+04   2.7666386e+04   2.7965205e+04   2.8279711e+04   2.8584963e+04   2.8891499e+04   2.9206129e+04   2.9527968e+04   2.9859482e+04   3.0195712e+04   3.0531414e+04   3.0869802e+04   3.1217641e+04   3.1572170e+04   3.1918684e+04   3.2262537e+04   3.2620051e+04   3.2986174e+04   3.3346415e+04   3.3703104e+04   3.4061653e+04   3.4422860e+04   3.4784965e+04   3.5150753e+04   3.5521097e+04
8.2329983e+03   8.7281085e+03   9.1971440e+03   9.6415400e+03   1.0067709e+04   1.0479305e+04   1.0876677e+04   1.1258307e+04   1.1626318e+04   1.1988226e+04   1.2349160e+04   1.2706727e+04   1.3055009e+04   1.3391914e+04   1.3717885e+04   1.4040963e+04   1.4369851e+04   1.4696308e+04   1.5010994e+04   1.5326848e+04   1.5642148e+04   1.5947529e+04   1.6240941e+04   1.6524047e+04   1.6794793e+04   1.7049252e+04   1.7290650e+04   1.7523625e+04   1.7751730e+04   1.7974499e+04   1.8190676e+04   1.8399887e+04   1.8602953e+04   1.8799093e+04   1.8988138e+04   1.9174047e+04   1.9360311e+04   1.9548894e+04   1.9739715e+04   1.9931367e+04   2.0122214e+04   2.0296523e+04   2.0449472e+04   2.0575472e+04   2.0678240e+04   2.0769944e+04   2.0856120e+04   2.0931816e+04   2.0999953e+04   2.1074059e+04   2.1154112e+04   2.1231219e+04   2.1303457e+04   2.1385329e+04   2.1477862e+04   2.1577428e+04   2.1681471e+04   2.1787640e+04   2.1895228e+04   2.2006204e+04   2.2118621e+04   2.2224917e+04   2.2324504e+04   2.2418470e+04   2.2507211e+04   2.2593028e+04   2.2678845e+04   2.2760056e+04   2.2841267e+04   2.2918787e+04   2.2996306e+04   2.3070191e+04   2.3144076e+04   2.3197517e+04   2.3224237e+04   2.3250957e+04   2.3273354e+04   2.3295654e+04   2.3317686e+04   2.3339379e+04   2.3360741e+04   2.3381534e+04   2.3401800e+04   2.3421641e+04   2.3441175e+04   2.3460484e+04   2.3479636e+04   2.3498687e+04   2.3517682e+04   2.3536709e+04   2.3555744e+04   2.3575568e+04   2.3596138e+04   2.3617617e+04   2.3639913e+04   2.3663638e+04   2.3688725e+04   2.3715315e+04   2.3743154e+04   2.3772406e+04   2.3802915e+04   2.3834906e+04   2.3868213e+04   2.3903573e+04   2.3940892e+04   2.3980296e+04   2.4021429e+04   2.4064284e+04   2.4108557e+04   2.4154168e+04   2.4200896e+04   2.4249100e+04   2.4298713e+04   2.4350230e+04   2.4403529e+04   2.4458818e+04   2.4515769e+04   2.4574613e+04   2.4635119e+04   2.4697500e+04   2.4761521e+04   2.4837380e+04   2.4928659e+04   2.5037855e+04   2.5161295e+04   2.5290875e+04   2.5410349e+04   2.5587770e+04   2.5772590e+04   2.5971430e+04   2.6179188e+04   2.6401616e+04   2.6633755e+04   2.6879373e+04   2.7134627e+04   2.7397070e+04   2.7668632e+04   2.7964162e+04   2.8274032e+04   2.8585842e+04   2.8901182e+04   2.9218402e+04   2.9539744e+04   2.9868240e+04   3.0202341e+04   3.0538753e+04   3.0878034e+04   3.1223453e+04   3.1573591e+04   3.1920903e+04   3.2268349e+04   3.2624417e+04   3.2985741e+04   3.3344412e+04   3.3702898e+04   3.4063496e+04   3.4426189e+04   3.4790198e+04   3.5156990e+04   3.5523975e+04
8.2825214e+03   8.7568928e+03   9.2180271e+03   9.6626365e+03   1.0092499e+04   1.0509347e+04   1.0913377e+04   1.1303087e+04   1.1679492e+04   1.2047903e+04   1.2413131e+04   1.2774785e+04   1.3128649e+04   1.3472835e+04   1.3807175e+04   1.4135591e+04   1.4470196e+04   1.4802122e+04   1.5115057e+04   1.5418785e+04   1.5719771e+04   1.6012039e+04   1.6292779e+04   1.6564936e+04   1.6830057e+04   1.7083134e+04   1.7323690e+04   1.7554397e+04   1.7779124e+04   1.7998587e+04   1.8212298e+04   1.8419774e+04   1.8621630e+04   1.8816785e+04   1.9004158e+04   1.9187971e+04   1.9372648e+04   1.9559946e+04   1.9749405e+04   1.9938892e+04   2.0127697e+04   2.0303300e+04   2.0462764e+04   2.0596709e+04   2.0705396e+04   2.0799239e+04   2.0885011e+04   2.0962131e+04   2.1033890e+04   2.1106756e+04   2.1181640e+04   2.1255154e+04   2.1326299e+04   2.1408610e+04   2.1500701e+04   2.1599567e+04   2.1703088e+04   2.1809813e+04   2.1918545e+04   2.2027703e+04   2.2134480e+04   2.2233754e+04   2.2327500e+04   2.2416035e+04   2.2503861e+04   2.2589021e+04   2.2674181e+04   2.2754783e+04   2.2835385e+04   2.2912429e+04   2.2989472e+04   2.3062901e+04   2.3136331e+04   2.3188809e+04   2.3215048e+04   2.3241288e+04   2.3263274e+04   2.3285085e+04   2.3306607e+04   2.3327821e+04   2.3348763e+04   2.3369288e+04   2.3389417e+04   2.3409218e+04   2.3428769e+04   2.3448115e+04   2.3467303e+04   2.3486380e+04   2.3505381e+04   2.3524293e+04   2.3543130e+04   2.3562825e+04   2.3583391e+04   2.3605073e+04   2.3627753e+04   2.3652130e+04   2.3678059e+04   2.3705660e+04   2.3734678e+04   2.3765251e+04   2.3797161e+04   2.3830323e+04   2.3864482e+04   2.3900464e+04   2.3938133e+04   2.3977688e+04   2.4018871e+04   2.4061730e+04   2.4105986e+04   2.4151899e+04   2.4199288e+04   2.4248344e+04   2.4298834e+04   2.4351205e+04   2.4405278e+04   2.4461342e+04   2.4519128e+04   2.4578953e+04   2.4640548e+04   2.4704116e+04   2.4769384e+04   2.4846826e+04   2.4939910e+04   2.5050112e+04   2.5176077e+04   2.5309990e+04   2.5435752e+04   2.5615574e+04   2.5801887e+04   2.6003209e+04   2.6213283e+04   2.6438127e+04   2.6671345e+04   2.6918533e+04   2.7174421e+04   2.7436115e+04   2.7703997e+04   2.7988981e+04   2.8285949e+04   2.8593878e+04   2.8907804e+04   2.9225846e+04   2.9548093e+04   2.9875484e+04   3.0208341e+04   3.0544922e+04   3.0884807e+04   3.1228748e+04   3.1576171e+04   3.1924654e+04   3.2275013e+04   3.2629814e+04   3.2987678e+04   3.3346205e+04   3.3706353e+04   3.4068728e+04   3.4433022e+04   3.4799710e+04   3.5168617e+04   3.5531380e+04
8.3102876e+03   8.7732179e+03   9.2288536e+03   9.6727647e+03   1.0104303e+04   1.0523829e+04   1.0931929e+04   1.1328076e+04   1.1712824e+04   1.2087571e+04   1.2454902e+04   1.2816970e+04   1.3172390e+04   1.3519704e+04   1.3858562e+04   1.4191154e+04   1.4524060e+04   1.4856346e+04   1.5171624e+04   1.5472768e+04   1.5766701e+04   1.6051926e+04   1.6326826e+04   1.6592958e+04   1.6852423e+04   1.7102714e+04   1.7342316e+04   1.7572289e+04   1.7795409e+04   1.8012830e+04   1.8224880e+04   1.8431198e+04   1.8632188e+04   1.8826320e+04   1.9012487e+04   1.9195577e+04   1.9379939e+04   1.9566663e+04   1.9754941e+04   1.9943371e+04   2.0131978e+04   2.0308950e+04   2.0472279e+04   2.0613651e+04   2.0731473e+04   2.0830957e+04   2.0918182e+04   2.0995911e+04   2.1068675e+04   2.1140276e+04   2.1211321e+04   2.1281488e+04   2.1350834e+04   2.1432270e+04   2.1522341e+04   2.1618581e+04   2.1719473e+04   2.1823487e+04   2.1929824e+04   2.2034628e+04   2.2135834e+04   2.2230882e+04   2.2322895e+04   2.2413599e+04   2.2500510e+04   2.2585013e+04   2.2669518e+04   2.2749511e+04   2.2829503e+04   2.2906072e+04   2.2982640e+04   2.3055613e+04   2.3128585e+04   2.3180101e+04   2.3205859e+04   2.3231618e+04   2.3253180e+04   2.3274526e+04   2.3295599e+04   2.3316406e+04   2.3336990e+04   2.3357240e+04   2.3377179e+04   2.3396860e+04   2.3416344e+04   2.3435640e+04   2.3454780e+04   2.3473803e+04   2.3492739e+04   2.3511596e+04   2.3530376e+04   2.3550102e+04   2.3570763e+04   2.3592614e+04   2.3615526e+04   2.3640194e+04   2.3666448e+04   2.3694406e+04   2.3723814e+04   2.3754631e+04   2.3786642e+04   2.3819701e+04   2.3853571e+04   2.3889248e+04   2.3926574e+04   2.3965779e+04   2.4006619e+04   2.4049336e+04   2.4093653e+04   2.4139768e+04   2.4187460e+04   2.4236834e+04   2.4287630e+04   2.4340311e+04   2.4394648e+04   2.4450939e+04   2.4508920e+04   2.4569007e+04   2.4630937e+04   2.4694968e+04   2.4760809e+04   2.4839684e+04   2.4934132e+04   2.5045220e+04   2.5171660e+04   2.5306972e+04   2.5439810e+04   2.5621065e+04   2.5808725e+04   2.6011053e+04   2.6222764e+04   2.6448262e+04   2.6682383e+04   2.6929765e+04   2.7186305e+04   2.7449958e+04   2.7719945e+04   2.8002132e+04   2.8294337e+04   2.8597961e+04   2.8909021e+04   2.9226553e+04   2.9549049e+04   2.9876581e+04   3.0209225e+04   3.0546115e+04   3.0886681e+04   3.1230657e+04   3.1577705e+04   3.1926985e+04   3.2278772e+04   3.2633595e+04   3.2990783e+04   3.3349617e+04   3.3710621e+04   3.4073819e+04   3.4438927e+04   3.4806262e+04   3.5175638e+04   3.5538212e+04
8.3309386e+03   8.7842313e+03   9.2363537e+03   9.6795174e+03   1.0111446e+04   1.0531941e+04   1.0941980e+04   1.1342551e+04   1.1733921e+04   1.2113523e+04   1.2481677e+04   1.2842725e+04   1.3197932e+04   1.3546399e+04   1.3887257e+04   1.4221338e+04   1.4550700e+04   1.4880752e+04   1.5198986e+04   1.5500432e+04   1.5791212e+04   1.6072732e+04   1.6345071e+04   1.6608256e+04   1.6863851e+04   1.7110991e+04   1.7349001e+04   1.7578187e+04   1.7800289e+04   1.8016270e+04   1.8227047e+04   1.8432336e+04   1.8632491e+04   1.8825664e+04   1.9011969e+04   1.9196386e+04   1.9381657e+04   1.9568177e+04   1.9755342e+04   1.9942738e+04   2.0131333e+04   2.0308643e+04   2.0476200e+04   2.0624550e+04   2.0750608e+04   2.0855881e+04   2.0945855e+04   2.1024013e+04   2.1095966e+04   2.1164493e+04   2.1230766e+04   2.1296523e+04   2.1361417e+04   2.1437465e+04   2.1522194e+04   2.1614320e+04   2.1711943e+04   2.1812844e+04   2.1916310e+04   2.2018001e+04   2.2116581e+04   2.2210364e+04   2.2301434e+04   2.2390516e+04   2.2477671e+04   2.2562029e+04   2.2646386e+04   2.2726129e+04   2.2805870e+04   2.2882200e+04   2.2958531e+04   2.3031307e+04   2.3104082e+04   2.3155565e+04   2.3181307e+04   2.3207048e+04   2.3228687e+04   2.3250086e+04   2.3271190e+04   2.3292013e+04   2.3312606e+04   2.3332869e+04   2.3352831e+04   2.3372542e+04   2.3392060e+04   2.3411398e+04   2.3430584e+04   2.3449653e+04   2.3468637e+04   2.3487529e+04   2.3506345e+04   2.3526151e+04   2.3546934e+04   2.3568958e+04   2.3592084e+04   2.3617007e+04   2.3643541e+04   2.3671796e+04   2.3701503e+04   2.3732533e+04   2.3764656e+04   2.3797720e+04   2.3831508e+04   2.3867081e+04   2.3904299e+04   2.3943415e+04   2.3984176e+04   2.4026892e+04   2.4071282e+04   2.4117562e+04   2.4165459e+04   2.4215007e+04   2.4265925e+04   2.4318682e+04   2.4373036e+04   2.4429300e+04   2.4487203e+04   2.4547234e+04   2.4609137e+04   2.4673219e+04   2.4739191e+04   2.4818943e+04   2.4914168e+04   2.5026248e+04   2.5152376e+04   2.5286267e+04   2.5419907e+04   2.5601983e+04   2.5790416e+04   2.5993505e+04   2.6205960e+04   2.6432120e+04   2.6667005e+04   2.6915000e+04   2.7172228e+04   2.7439476e+04   2.7713940e+04   2.7999103e+04   2.8293006e+04   2.8596281e+04   2.8906760e+04   2.9224012e+04   2.9546807e+04   2.9874807e+04   3.0207716e+04   3.0545018e+04   3.0886188e+04   3.1230602e+04   3.1577965e+04   3.1927911e+04   3.2280540e+04   3.2635736e+04   3.2993098e+04   3.3352399e+04   3.3713978e+04   3.4077714e+04   3.4443360e+04   3.4810975e+04   3.5180464e+04   3.5543294e+04
8.3528961e+03   8.7990036e+03   9.2486727e+03   9.6911485e+03   1.0122750e+04   1.0543224e+04   1.0953932e+04   1.1356977e+04   1.1751951e+04   1.2133942e+04   1.2502196e+04   1.2862020e+04   1.3216369e+04   1.3564960e+04   1.3906886e+04   1.4240852e+04   1.4565006e+04   1.4890887e+04   1.5208641e+04   1.5510085e+04   1.5798937e+04   1.6077770e+04   1.6348191e+04   1.6610124e+04   1.6863598e+04   1.7108199e+04   1.7344344e+04   1.7572458e+04   1.7793542e+04   1.8008309e+04   1.8217980e+04   1.8422397e+04   1.8621721e+04   1.8814811e+04   1.9002875e+04   1.9189431e+04   1.9376322e+04   1.9563629e+04   1.9750212e+04   1.9936239e+04   2.0122063e+04   2.0299046e+04   2.0472265e+04   2.0624726e+04   2.0755420e+04   2.0864703e+04   2.0957038e+04   2.1037559e+04   2.1111885e+04   2.1180088e+04   2.1243246e+04   2.1304587e+04   2.1364185e+04   2.1433918e+04   2.1512337e+04   2.1600081e+04   2.1694836e+04   2.1794006e+04   2.1896078e+04   2.1996349e+04   2.2094021e+04   2.2187483e+04   2.2278398e+04   2.2367431e+04   2.2454833e+04   2.2539044e+04   2.2623255e+04   2.2702746e+04   2.2782238e+04   2.2858330e+04   2.2934422e+04   2.3007001e+04   2.3079579e+04   2.3131029e+04   2.3156753e+04   2.3182478e+04   2.3204133e+04   2.3225532e+04   2.3246637e+04   2.3267467e+04   2.3288073e+04   2.3308358e+04   2.3328349e+04   2.3348096e+04   2.3367658e+04   2.3387038e+04   2.3406270e+04   2.3425385e+04   2.3444416e+04   2.3463359e+04   2.3482228e+04   2.3502077e+04   2.3522913e+04   2.3545005e+04   2.3568216e+04   2.3593235e+04   2.3619880e+04   2.3648250e+04   2.3678078e+04   2.3709187e+04   2.3741329e+04   2.3774346e+04   2.3808037e+04   2.3843497e+04   2.3880612e+04   2.3919649e+04   2.3960352e+04   2.4003076e+04   2.4047538e+04   2.4093915e+04   2.4141915e+04   2.4191535e+04   2.4242483e+04   2.4295225e+04   2.4349532e+04   2.4405724e+04   2.4463540e+04   2.4523485e+04   2.4585318e+04   2.4649372e+04   2.4715364e+04   2.4795336e+04   2.4890903e+04   2.5003525e+04   2.5130063e+04   2.5264429e+04   2.5400766e+04   2.5583996e+04   2.5773645e+04   2.5977920e+04   2.6191642e+04   2.6418940e+04   2.6655094e+04   2.6904204e+04   2.7162609e+04   2.7431571e+04   2.7708145e+04   2.7994906e+04   2.8289980e+04   2.8593668e+04   2.8904285e+04   2.9221824e+04   2.9545209e+04   2.9873916e+04   3.0207417e+04   3.0545301e+04   3.0887126e+04   3.1232153e+04   3.1580102e+04   3.1930727e+04   3.2284056e+04   3.2639764e+04   3.2997597e+04   3.3357448e+04   3.3719553e+04   3.4083741e+04   3.4449814e+04   3.4817723e+04   3.5187387e+04   3.5549437e+04
8.3740933e+03   8.8181606e+03   9.2660110e+03   9.7077298e+03   1.0138778e+04   1.0558900e+04   1.0969680e+04   1.1373457e+04   1.1769270e+04   1.2151888e+04   1.2520304e+04   1.2879540e+04   1.3233065e+04   1.3581274e+04   1.3923320e+04   1.4255849e+04   1.4579374e+04   1.4900455e+04   1.5213570e+04   1.5513775e+04   1.5801084e+04   1.6077997e+04   1.6346928e+04   1.6607735e+04   1.6859329e+04   1.7101859e+04   1.7336351e+04   1.7563286e+04   1.7783182e+04   1.7996753e+04   1.8205525e+04   1.8409120e+04   1.8607573e+04   1.8801005e+04   1.8989269e+04   1.9175700e+04   1.9363770e+04   1.9551881e+04   1.9738726e+04   1.9922684e+04   2.0100465e+04   2.0271734e+04   2.0443218e+04   2.0590315e+04   2.0718272e+04   2.0824994e+04   2.0913434e+04   2.0992577e+04   2.1066353e+04   2.1135398e+04   2.1200972e+04   2.1267734e+04   2.1335521e+04   2.1410620e+04   2.1491783e+04   2.1581370e+04   2.1677788e+04   2.1776837e+04   2.1876466e+04   2.1974560e+04   2.2071173e+04   2.2164227e+04   2.2255642e+04   2.2342552e+04   2.2430258e+04   2.2514902e+04   2.2599547e+04   2.2681831e+04   2.2764115e+04   2.2837717e+04   2.2911319e+04   2.2983746e+04   2.3056174e+04   2.3107583e+04   2.3133287e+04   2.3158993e+04   2.3180618e+04   2.3201999e+04   2.3223095e+04   2.3243923e+04   2.3264532e+04   2.3284823e+04   2.3304824e+04   2.3324582e+04   2.3344153e+04   2.3363544e+04   2.3382784e+04   2.3401910e+04   2.3420949e+04   2.3439899e+04   2.3458775e+04   2.3478621e+04   2.3499463e+04   2.3521575e+04   2.3544825e+04   2.3569905e+04   2.3596632e+04   2.3625104e+04   2.3655048e+04   2.3686223e+04   2.3718382e+04   2.3751359e+04   2.3784966e+04   2.3820340e+04   2.3857379e+04   2.3896348e+04   2.3936985e+04   2.3979700e+04   2.4024205e+04   2.4070638e+04   2.4118682e+04   2.4168309e+04   2.4219229e+04   2.4271929e+04   2.4326192e+04   2.4382346e+04   2.4440135e+04   2.4500082e+04   2.4561945e+04   2.4626058e+04   2.4692137e+04   2.4772355e+04   2.4868139e+04   2.4981404e+04   2.5108390e+04   2.5243209e+04   2.5380073e+04   2.5564333e+04   2.5755078e+04   2.5960520e+04   2.6175501e+04   2.6404003e+04   2.6641450e+04   2.6891769e+04   2.7151435e+04   2.7421675e+04   2.7699634e+04   2.7987578e+04   2.8283726e+04   2.8588169e+04   2.8899374e+04   2.9217503e+04   2.9541619e+04   2.9871105e+04   3.0205318e+04   3.0543870e+04   3.0886380e+04   3.1232080e+04   3.1580705e+04   3.1932015e+04   3.2286002e+04   3.2642277e+04   3.3000665e+04   3.3361080e+04   3.3723703e+04   3.4088323e+04   3.4454782e+04   3.4822979e+04   3.5192837e+04   3.5553752e+04
8.3895381e+03   8.8382350e+03   9.2852558e+03   9.7260177e+03   1.0156432e+04   1.0576154e+04   1.0986765e+04   1.1390166e+04   1.1785039e+04   1.2167174e+04   1.2535933e+04   1.2895266e+04   1.3248314e+04   1.3596016e+04   1.3937773e+04   1.4271310e+04   1.4598062e+04   1.4915569e+04   1.5224040e+04   1.5521882e+04   1.5807919e+04   1.6083335e+04   1.6350140e+04   1.6608336e+04   1.6857849e+04   1.7098614e+04   1.7331871e+04   1.7557614e+04   1.7776537e+04   1.7989244e+04   1.8197167e+04   1.8399637e+04   1.8597118e+04   1.8788920e+04   1.8974223e+04   1.9158508e+04   1.9345326e+04   1.9532227e+04   1.9718620e+04   1.9897159e+04   2.0062386e+04   2.0221948e+04   2.0381925e+04   2.0520681e+04   2.0648333e+04   2.0757716e+04   2.0847868e+04   2.0929126e+04   2.1004345e+04   2.1076474e+04   2.1147153e+04   2.1222097e+04   2.1300298e+04   2.1381557e+04   2.1465166e+04   2.1556654e+04   2.1655182e+04   2.1753713e+04   2.1850105e+04   2.1945800e+04   2.2041454e+04   2.2134611e+04   2.2227171e+04   2.2317672e+04   2.2405683e+04   2.2490761e+04   2.2575838e+04   2.2660915e+04   2.2745992e+04   2.2817104e+04   2.2888216e+04   2.2960493e+04   2.3032768e+04   2.3084138e+04   2.3109823e+04   2.3135508e+04   2.3157130e+04   2.3178508e+04   2.3199604e+04   2.3220434e+04   2.3241048e+04   2.3261345e+04   2.3281352e+04   2.3301117e+04   2.3320695e+04   2.3340092e+04   2.3359339e+04   2.3378471e+04   2.3397517e+04   2.3416473e+04   2.3435353e+04   2.3455207e+04   2.3476073e+04   2.3498230e+04   2.3521549e+04   2.3546720e+04   2.3573559e+04   2.3602158e+04   2.3632239e+04   2.3663550e+04   2.3695841e+04   2.3728937e+04   2.3762651e+04   2.3798118e+04   2.3835231e+04   2.3874245e+04   2.3914907e+04   2.3957625e+04   2.4002102e+04   2.4048484e+04   2.4096476e+04   2.4146070e+04   2.4196982e+04   2.4249720e+04   2.4304065e+04   2.4360332e+04   2.4418267e+04   2.4478384e+04   2.4540438e+04   2.4604747e+04   2.4671024e+04   2.4751470e+04   2.4847612e+04   2.4961408e+04   2.5089078e+04   2.5224654e+04   2.5361055e+04   2.5546128e+04   2.5737583e+04   2.5944041e+04   2.6159759e+04   2.6389151e+04   2.6627343e+04   2.6878605e+04   2.7139009e+04   2.7410102e+04   2.7688826e+04   2.7977619e+04   2.8274383e+04   2.8579480e+04   2.8891176e+04   2.9209913e+04   2.9534577e+04   2.9864754e+04   3.0199578e+04   3.0538796e+04   3.0881891e+04   3.1228275e+04   3.1577548e+04   3.1929564e+04   3.2284173e+04   3.2641092e+04   3.3000082e+04   3.3361161e+04   3.3724327e+04   3.4089462e+04   3.4456332e+04   3.4824910e+04   3.5195006e+04   3.5553925e+04
8.3997935e+03   8.8559310e+03   9.3033875e+03   9.7431990e+03   1.0172973e+04   1.0592298e+04   1.1002644e+04   1.1405064e+04   1.1798243e+04   1.2179388e+04   1.2548502e+04   1.2908243e+04   1.3261150e+04   1.3608382e+04   1.3949811e+04   1.4285312e+04   1.4613140e+04   1.4928535e+04   1.5233525e+04   1.5528960e+04   1.5813725e+04   1.6087712e+04   1.6352022e+04   1.6607133e+04   1.6854143e+04   1.7093143e+04   1.7325245e+04   1.7550001e+04   1.7768243e+04   1.7980246e+04   1.8187158e+04   1.8388334e+04   1.8584296e+04   1.8773227e+04   1.8955898e+04   1.9137882e+04   1.9321536e+04   1.9505310e+04   1.9688193e+04   1.9858879e+04   2.0015124e+04   2.0164407e+04   2.0312149e+04   2.0448405e+04   2.0578242e+04   2.0690385e+04   2.0785551e+04   2.0871017e+04   2.0951340e+04   2.1029624e+04   2.1107178e+04   2.1186718e+04   2.1268341e+04   2.1351879e+04   2.1436886e+04   2.1529759e+04   2.1628785e+04   2.1727103e+04   2.1823645e+04   2.1919430e+04   2.2014926e+04   2.2108636e+04   2.2201425e+04   2.2297206e+04   2.2385173e+04   2.2469799e+04   2.2554425e+04   2.2636528e+04   2.2718630e+04   2.2791970e+04   2.2865311e+04   2.2937469e+04   2.3009628e+04   2.3060931e+04   2.3086582e+04   2.3112234e+04   2.3133825e+04   2.3155176e+04   2.3176247e+04   2.3197057e+04   2.3217652e+04   2.3237931e+04   2.3257922e+04   2.3277672e+04   2.3297236e+04   2.3316620e+04   2.3335856e+04   2.3354978e+04   2.3374014e+04   2.3392960e+04   2.3411831e+04   2.3431697e+04   2.3452595e+04   2.3474811e+04   2.3498210e+04   2.3523477e+04   2.3550427e+04   2.3579148e+04   2.3609360e+04   2.3640796e+04   2.3673199e+04   2.3706384e+04   2.3740158e+04   2.3775656e+04   2.3812779e+04   2.3851793e+04   2.3892453e+04   2.3935125e+04   2.3979529e+04   2.4025855e+04   2.4073811e+04   2.4123405e+04   2.4174349e+04   2.4227154e+04   2.4281590e+04   2.4337984e+04   2.4396068e+04   2.4456356e+04   2.4518595e+04   2.4583099e+04   2.4649571e+04   2.4730294e+04   2.4826829e+04   2.4940939e+04   2.5069073e+04   2.5205006e+04   2.5341039e+04   2.5526651e+04   2.5718576e+04   2.5925743e+04   2.6142051e+04   2.6372103e+04   2.6610825e+04   2.6862771e+04   2.7123722e+04   2.7395431e+04   2.7674676e+04   2.7964116e+04   2.8261381e+04   2.8567075e+04   2.8879263e+04   2.9198633e+04   2.9523858e+04   2.9854739e+04   3.0190213e+04   3.0530167e+04   3.0873928e+04   3.1221088e+04   3.1571111e+04   3.1923947e+04   3.2279308e+04   3.2637017e+04   3.2996756e+04   3.3358609e+04   3.3722439e+04   3.4088170e+04   3.4455526e+04   3.4824512e+04   3.5194875e+04   3.5553858e+04
8.4075707e+03   8.8697311e+03   9.3185440e+03   9.7578440e+03   1.0186935e+04   1.0605955e+04   1.1015942e+04   1.1417275e+04   1.1808560e+04   1.2188763e+04   1.2558105e+04   1.2918316e+04   1.3271155e+04   1.3618044e+04   1.3959010e+04   1.4294705e+04   1.4622146e+04   1.4936516e+04   1.5239672e+04   1.5533119e+04   1.5816482e+04   1.6088957e+04   1.6350963e+04   1.6603159e+04   1.6847230e+04   1.7083835e+04   1.7314278e+04   1.7537836e+04   1.7755335e+04   1.7966527e+04   1.8172353e+04   1.8371983e+04   1.8566093e+04   1.8753732e+04   1.8936643e+04   1.9117922e+04   1.9298685e+04   1.9477563e+04   1.9653564e+04   1.9817772e+04   1.9971308e+04   2.0117394e+04   2.0259186e+04   2.0391548e+04   2.0515771e+04   2.0624977e+04   2.0722607e+04   2.0812679e+04   2.0899134e+04   2.0984347e+04   2.1069139e+04   2.1154174e+04   2.1239984e+04   2.1327431e+04   2.1416688e+04   2.1511754e+04   2.1610320e+04   2.1708530e+04   2.1806205e+04   2.1902679e+04   2.1998128e+04   2.2091500e+04   2.2183678e+04   2.2276739e+04   2.2364663e+04   2.2448838e+04   2.2533012e+04   2.2612141e+04   2.2691269e+04   2.2766837e+04   2.2842405e+04   2.2914446e+04   2.2986488e+04   2.3037724e+04   2.3063341e+04   2.3088959e+04   2.3110524e+04   2.3131848e+04   2.3152895e+04   2.3173683e+04   2.3194259e+04   2.3214520e+04   2.3234495e+04   2.3254229e+04   2.3273780e+04   2.3293150e+04   2.3312375e+04   2.3331485e+04   2.3350512e+04   2.3369448e+04   2.3388311e+04   2.3408177e+04   2.3429086e+04   2.3451326e+04   2.3474761e+04   2.3500077e+04   2.3527085e+04   2.3555872e+04   2.3586155e+04   2.3617640e+04   2.3650064e+04   2.3683229e+04   2.3716948e+04   2.3752372e+04   2.3789411e+04   2.3828341e+04   2.3868920e+04   2.3911541e+04   2.3955925e+04   2.4002239e+04   2.4050186e+04   2.4099760e+04   2.4150668e+04   2.4203433e+04   2.4257827e+04   2.4314187e+04   2.4372247e+04   2.4432539e+04   2.4494802e+04   2.4559354e+04   2.4625890e+04   2.4706872e+04   2.4803671e+04   2.4918027e+04   2.5046156e+04   2.5181570e+04   2.5317012e+04   2.5502798e+04   2.5694902e+04   2.5902389e+04   2.6119024e+04   2.6349456e+04   2.6588541e+04   2.6840931e+04   2.7102315e+04   2.7374494e+04   2.7654203e+04   2.7944194e+04   2.8241996e+04   2.8548286e+04   2.8861062e+04   2.9181095e+04   2.9506979e+04   2.9838585e+04   3.0174782e+04   3.0515513e+04   3.0860036e+04   3.1208009e+04   3.1558850e+04   3.1912539e+04   3.2268729e+04   3.2627275e+04   3.2987832e+04   3.3350482e+04   3.3715025e+04   3.4081379e+04   3.4449258e+04   3.4818653e+04   3.5189285e+04   3.5549295e+04
