8.7679682e+03   9.1275449e+03   9.4717969e+03   9.8150050e+03   1.0174831e+04   1.0559246e+04   1.0953343e+04   1.1332782e+04   1.1691306e+04   1.2038192e+04   1.2383111e+04   1.2729503e+04   1.3078401e+04   1.3433492e+04   1.3799281e+04   1.4173701e+04   1.4542205e+04   1.4890970e+04   1.5220897e+04   1.5534502e+04   1.5832861e+04   1.6116499e+04   1.6387017e+04   1.6647103e+04   1.6900247e+04   1.7151847e+04   1.7409309e+04   1.7680231e+04   1.7940800e+04   1.8179782e+04   1.8402494e+04   1.8611354e+04   1.8813801e+04   1.9019979e+04   1.9217249e+04   1.9402458e+04   1.9578696e+04   1.9737698e+04   1.9868603e+04   1.9976476e+04   2.0070102e+04   2.0154683e+04   2.0232753e+04   2.0305748e+04   2.0374314e+04   2.0439078e+04   2.0501166e+04   2.0561667e+04   2.0621113e+04   2.0673436e+04   2.0725760e+04   2.0775670e+04   2.0825581e+04   2.0869382e+04   2.0913183e+04   2.0952588e+04   2.0991992e+04   2.1028454e+04   2.1064917e+04   2.1099478e+04   2.1134039e+04   2.1176813e+04   2.1219587e+04   2.1268752e+04   2.1317917e+04   2.1370849e+04   2.1423780e+04   2.1479447e+04   2.1535116e+04   2.1593209e+04   2.1651304e+04   2.1710720e+04   2.1770136e+04   2.1828813e+04   2.1887489e+04   2.1944974e+04   2.2002459e+04   2.2056112e+04   2.2109764e+04   2.2160626e+04   2.2211487e+04   2.2261154e+04   2.2310821e+04   2.2358397e+04   2.2405973e+04   2.2450339e+04   2.2494704e+04   2.2541641e+04   2.2588579e+04   2.2632796e+04   2.2677013e+04   2.2715297e+04   2.2753582e+04   2.2792487e+04   2.2831391e+04   2.2869867e+04   2.2908342e+04   2.2945545e+04   2.2982747e+04   2.3018158e+04   2.3053567e+04   2.3087005e+04   2.3120443e+04   2.3151987e+04   2.3183531e+04   2.3213398e+04   2.3243266e+04   2.3271733e+04   2.3300202e+04   2.3327126e+04   2.3353916e+04   2.3380549e+04   2.3407005e+04   2.3433309e+04   2.3459513e+04   2.3485677e+04   2.3511923e+04   2.3538259e+04   2.3564795e+04   2.3591517e+04   2.3618546e+04   2.3645849e+04   2.3673555e+04   2.3701616e+04   2.3730159e+04   2.3759119e+04   2.3788630e+04   2.3818612e+04   2.3849227e+04   2.3880387e+04   2.3912294e+04   2.3944860e+04   2.3978327e+04   2.4012593e+04   2.4047929e+04   2.4084208e+04   2.4121710e+04   2.4160278e+04   2.4200196e+04   2.4241278e+04   2.4283829e+04   2.4327660e+04   2.4373113e+04   2.4419996e+04   2.4468661e+04   2.4518891e+04   2.4570986e+04   2.4624668e+04   2.4680112e+04   2.4736949e+04   2.4795146e+04   2.4854287e+04   2.4915057e+04   2.4977355e+04   2.5053980e+04   2.5145993e+04   2.5253880e+04   2.5373906e+04   2.5499312e+04   2.5620859e+04   2.5791873e+04   2.5976985e+04   2.6168523e+04   2.6365909e+04   2.6576686e+04   2.6803245e+04   2.7047054e+04   2.7302742e+04   2.7566863e+04   2.7837778e+04   2.8116840e+04   2.8405132e+04   2.8704498e+04   2.9013022e+04   2.9329466e+04   2.9652688e+04   2.9981364e+04   3.0313560e+04   3.0655389e+04   3.0996534e+04   3.1341562e+04   3.1689003e+04   3.2039326e+04   3.2391540e+04   3.2745896e+04   3.3101722e+04
8.7824320e+03   9.1413161e+03   9.4804085e+03   9.8137622e+03   1.0161247e+04   1.0533927e+04   1.0917779e+04   1.1289788e+04   1.1645690e+04   1.1993897e+04   1.2341598e+04   1.2690760e+04   1.3041962e+04   1.3398630e+04   1.3765694e+04   1.4141617e+04   1.4511296e+04   1.4861259e+04   1.5192153e+04   1.5506139e+04   1.5804482e+04   1.6088522e+04   1.6360716e+04   1.6624092e+04   1.6882162e+04   1.7140149e+04   1.7404310e+04   1.7679612e+04   1.7940675e+04   1.8177345e+04   1.8396624e+04   1.8602338e+04   1.8804003e+04   1.9013389e+04   1.9213813e+04   1.9399947e+04   1.9576440e+04   1.9735966e+04   1.9867013e+04   1.9974459e+04   2.0067539e+04   2.0151702e+04   2.0229493e+04   2.0302300e+04   2.0370750e+04   2.0435425e+04   2.0497382e+04   2.0557556e+04   2.0617542e+04   2.0669891e+04   2.0722241e+04   2.0772190e+04   2.0822138e+04   2.0865994e+04   2.0909851e+04   2.0949311e+04   2.0988771e+04   2.1025293e+04   2.1061816e+04   2.1096430e+04   2.1131044e+04   2.1173857e+04   2.1216671e+04   2.1265899e+04   2.1315126e+04   2.1368192e+04   2.1421258e+04   2.1477089e+04   2.1532920e+04   2.1591145e+04   2.1649369e+04   2.1708838e+04   2.1768305e+04   2.1826919e+04   2.1885533e+04   2.1942867e+04   2.2000202e+04   2.2053561e+04   2.2106920e+04   2.2157412e+04   2.2207905e+04   2.2257530e+04   2.2307155e+04   2.2354536e+04   2.2401916e+04   2.2445606e+04   2.2489295e+04   2.2536396e+04   2.2583498e+04   2.2627893e+04   2.2672288e+04   2.2710476e+04   2.2748664e+04   2.2787913e+04   2.2827163e+04   2.2866185e+04   2.2905209e+04   2.2942961e+04   2.2980714e+04   2.3016539e+04   2.3052365e+04   2.3086019e+04   2.3119673e+04   2.3151222e+04   2.3182770e+04   2.3212446e+04   2.3242123e+04   2.3270234e+04   2.3298345e+04   2.3324728e+04   2.3350961e+04   2.3377022e+04   2.3402893e+04   2.3428603e+04   2.3454204e+04   2.3479770e+04   2.3505429e+04   2.3531187e+04   2.3557160e+04   2.3583330e+04   2.3609824e+04   2.3636604e+04   2.3663803e+04   2.3691367e+04   2.3719427e+04   2.3747910e+04   2.3776954e+04   2.3806475e+04   2.3836643e+04   2.3867369e+04   2.3898872e+04   2.3931065e+04   2.3964214e+04   2.3998220e+04   2.4033375e+04   2.4069551e+04   2.4107044e+04   2.4145686e+04   2.4185770e+04   2.4227090e+04   2.4269956e+04   2.4314163e+04   2.4360061e+04   2.4407443e+04   2.4456663e+04   2.4507491e+04   2.4560221e+04   2.4614557e+04   2.4670663e+04   2.4728148e+04   2.4787046e+04   2.4846900e+04   2.4908339e+04   2.4971288e+04   2.5048734e+04   2.5141110e+04   2.5248946e+04   2.5369161e+04   2.5495210e+04   2.5617301e+04   2.5788925e+04   2.5975935e+04   2.6167610e+04   2.6363813e+04   2.6573665e+04   2.6799719e+04   2.7044068e+04   2.7300473e+04   2.7565059e+04   2.7836012e+04   2.8115003e+04   2.8403191e+04   2.8702850e+04   2.9011711e+04   2.9328524e+04   2.9651879e+04   2.9980611e+04   3.0312374e+04   3.0656362e+04   3.0997327e+04   3.1342164e+04   3.1689416e+04   3.2039578e+04   3.2391646e+04   3.2745903e+04   3.3101653e+04
8.7948049e+03   9.1525227e+03   9.4868857e+03   9.8126870e+03   1.0150008e+04   1.0510319e+04   1.0882299e+04   1.1246878e+04   1.1601101e+04   1.1951243e+04   1.2301840e+04   1.2653717e+04   1.3007226e+04   1.3365588e+04   1.3733990e+04   1.4111093e+04   1.4481380e+04   1.4832080e+04   1.5163639e+04   1.5477822e+04   1.5776200e+04   1.6060979e+04   1.6335345e+04   1.6602600e+04   1.6866314e+04   1.7131411e+04   1.7402568e+04   1.7681837e+04   1.7941891e+04   1.8174989e+04   1.8390503e+04   1.8593737e+04   1.8795400e+04   1.9007194e+04   1.9208551e+04   1.9395119e+04   1.9571751e+04   1.9731783e+04   1.9863105e+04   1.9970220e+04   2.0062807e+04   2.0146689e+04   2.0224425e+04   2.0297267e+04   2.0365783e+04   2.0430513e+04   2.0492305e+04   2.0552274e+04   2.0614488e+04   2.0666757e+04   2.0719027e+04   2.0768929e+04   2.0818830e+04   2.0862706e+04   2.0906582e+04   2.0946066e+04   2.0985552e+04   2.1022107e+04   2.1058663e+04   2.1093332e+04   2.1128001e+04   2.1170858e+04   2.1213715e+04   2.1263054e+04   2.1312394e+04   2.1365638e+04   2.1418882e+04   2.1474895e+04   2.1530908e+04   2.1589100e+04   2.1647292e+04   2.1706542e+04   2.1765792e+04   2.1824114e+04   2.1882436e+04   2.1939482e+04   2.1996529e+04   2.2049751e+04   2.2102973e+04   2.2153363e+04   2.2203753e+04   2.2253346e+04   2.2302939e+04   2.2350118e+04   2.2397297e+04   2.2440592e+04   2.2483887e+04   2.2531152e+04   2.2578419e+04   2.2622990e+04   2.2667562e+04   2.2706070e+04   2.2744577e+04   2.2783846e+04   2.2823115e+04   2.2861925e+04   2.2900736e+04   2.2938132e+04   2.2975530e+04   2.3010960e+04   2.3046390e+04   2.3079689e+04   2.3112987e+04   2.3144261e+04   2.3175536e+04   2.3205040e+04   2.3234545e+04   2.3262577e+04   2.3290611e+04   2.3316967e+04   2.3343193e+04   2.3369271e+04   2.3395181e+04   2.3420947e+04   2.3446627e+04   2.3472279e+04   2.3498013e+04   2.3523836e+04   2.3549857e+04   2.3576063e+04   2.3602575e+04   2.3629360e+04   2.3656545e+04   2.3684075e+04   2.3712070e+04   2.3740459e+04   2.3769378e+04   2.3798747e+04   2.3828746e+04   2.3859299e+04   2.3890641e+04   2.3922692e+04   2.3955725e+04   2.3989642e+04   2.4024719e+04   2.4060816e+04   2.4098202e+04   2.4136689e+04   2.4176567e+04   2.4217649e+04   2.4260283e+04   2.4304291e+04   2.4350058e+04   2.4397390e+04   2.4446651e+04   2.4497605e+04   2.4550508e+04   2.4605019e+04   2.4661262e+04   2.4718839e+04   2.4777785e+04   2.4837662e+04   2.4899040e+04   2.4961766e+04   2.5038660e+04   2.5130435e+04   2.5238169e+04   2.5358939e+04   2.5485656e+04   2.5608143e+04   2.5781798e+04   2.5968521e+04   2.6157043e+04   2.6356373e+04   2.6569125e+04   2.6796404e+04   2.7042294e+04   2.7299448e+04   2.7564206e+04   2.7834609e+04   2.8113761e+04   2.8401682e+04   2.8701616e+04   2.9010610e+04   2.9327798e+04   2.9651150e+04   2.9979984e+04   3.0312002e+04   3.0654333e+04   3.0995184e+04   3.1339895e+04   3.1687090e+04   3.2037207e+04   3.2389281e+04   3.2743556e+04   3.3099359e+04
8.8040761e+03   9.1604481e+03   9.4911311e+03   9.8117374e+03   1.0140772e+04   1.0488360e+04   1.0847687e+04   1.1205366e+04   1.1558589e+04   1.1910766e+04   1.2264083e+04   1.2618488e+04   1.2974223e+04   1.3334388e+04   1.3704188e+04   1.4082118e+04   1.4452387e+04   1.4803451e+04   1.5135501e+04   1.5449871e+04   1.5748516e+04   1.6034465e+04   1.6311461e+04   1.6583036e+04   1.6852868e+04   1.7125430e+04   1.7403459e+04   1.7686104e+04   1.7943877e+04   1.8172490e+04   1.8384538e+04   1.8586794e+04   1.8792594e+04   1.9006433e+04   1.9205419e+04   1.9391496e+04   1.9567980e+04   1.9727097e+04   1.9857169e+04   1.9963969e+04   2.0056408e+04   2.0140180e+04   2.0217850e+04   2.0290666e+04   2.0359187e+04   2.0423939e+04   2.0485834e+04   2.0546152e+04   2.0611433e+04   2.0663624e+04   2.0715814e+04   2.0765668e+04   2.0815522e+04   2.0859417e+04   2.0903313e+04   2.0942823e+04   2.0982332e+04   2.1018921e+04   2.1055510e+04   2.1090234e+04   2.1124958e+04   2.1167858e+04   2.1210757e+04   2.1260209e+04   2.1309662e+04   2.1363084e+04   2.1416506e+04   2.1472701e+04   2.1528896e+04   2.1587056e+04   2.1645216e+04   2.1704248e+04   2.1763279e+04   2.1821308e+04   2.1879338e+04   2.1936097e+04   2.1992857e+04   2.2045942e+04   2.2099025e+04   2.2149314e+04   2.2199602e+04   2.2249162e+04   2.2298722e+04   2.2345700e+04   2.2392677e+04   2.2435578e+04   2.2478478e+04   2.2525908e+04   2.2573338e+04   2.2618087e+04   2.2662838e+04   2.2701664e+04   2.2740490e+04   2.2779779e+04   2.2819067e+04   2.2857664e+04   2.2896262e+04   2.2933304e+04   2.2970346e+04   2.3005381e+04   2.3040416e+04   2.3073358e+04   2.3106300e+04   2.3137300e+04   2.3168301e+04   2.3197634e+04   2.3226966e+04   2.3254922e+04   2.3282876e+04   2.3309205e+04   2.3335425e+04   2.3361519e+04   2.3387468e+04   2.3413291e+04   2.3439050e+04   2.3464788e+04   2.3490598e+04   2.3516485e+04   2.3542554e+04   2.3568796e+04   2.3595327e+04   2.3622117e+04   2.3649287e+04   2.3676782e+04   2.3704712e+04   2.3733009e+04   2.3761800e+04   2.3791018e+04   2.3820849e+04   2.3851230e+04   2.3882409e+04   2.3914318e+04   2.3947235e+04   2.3981064e+04   2.4016061e+04   2.4052081e+04   2.4089359e+04   2.4127691e+04   2.4167365e+04   2.4208208e+04   2.4250612e+04   2.4294419e+04   2.4340057e+04   2.4387338e+04   2.4436641e+04   2.4487719e+04   2.4540796e+04   2.4595482e+04   2.4651862e+04   2.4709529e+04   2.4768522e+04   2.4828424e+04   2.4889741e+04   2.4952245e+04   2.5028586e+04   2.5119760e+04   2.5227392e+04   2.5348717e+04   2.5476101e+04   2.5598985e+04   2.5774671e+04   2.5961107e+04   2.6146475e+04   2.6348933e+04   2.6564586e+04   2.6793090e+04   2.7040519e+04   2.7298424e+04   2.7563352e+04   2.7833206e+04   2.8112520e+04   2.8400172e+04   2.8700382e+04   2.9009509e+04   2.9327071e+04   2.9650421e+04   2.9979357e+04   3.0311631e+04   3.0652303e+04   3.0993042e+04   3.1337625e+04   3.1684765e+04   3.2034837e+04   3.2386915e+04   3.2741209e+04   3.3097064e+04
8.8100266e+03   9.1652001e+03   9.4936118e+03   9.8109481e+03   1.0132792e+04   1.0467756e+04   1.0814817e+04   1.1166416e+04   1.1518871e+04   1.1872673e+04   1.2228245e+04   1.2584857e+04   1.2942661e+04   1.3304681e+04   1.3675932e+04   1.4054347e+04   1.4424250e+04   1.4775489e+04   1.5107995e+04   1.5422711e+04   1.5722004e+04   1.6009585e+04   1.6289588e+04   1.6565753e+04   1.6841904e+04   1.7121866e+04   1.7406178e+04   1.7691366e+04   1.7945872e+04   1.8169646e+04   1.8379227e+04   1.8583618e+04   1.8796671e+04   1.9009974e+04   1.9206336e+04   1.9391695e+04   1.9567827e+04   1.9724783e+04   1.9853581e+04   1.9960413e+04   2.0053160e+04   2.0136962e+04   2.0214348e+04   2.0286789e+04   2.0354914e+04   2.0419369e+04   2.0480247e+04   2.0540649e+04   2.0608379e+04   2.0660490e+04   2.0712601e+04   2.0762407e+04   2.0812213e+04   2.0856129e+04   2.0900045e+04   2.0939579e+04   2.0979112e+04   2.1015735e+04   2.1052358e+04   2.1087137e+04   2.1121915e+04   2.1164858e+04   2.1207800e+04   2.1257365e+04   2.1306930e+04   2.1360530e+04   2.1414131e+04   2.1470507e+04   2.1526884e+04   2.1585011e+04   2.1643139e+04   2.1701952e+04   2.1760765e+04   2.1818503e+04   2.1876239e+04   2.1932712e+04   2.1989185e+04   2.2042132e+04   2.2095079e+04   2.2145264e+04   2.2195450e+04   2.2244978e+04   2.2294506e+04   2.2341282e+04   2.2388059e+04   2.2430565e+04   2.2473070e+04   2.2520664e+04   2.2568257e+04   2.2613186e+04   2.2658112e+04   2.2697258e+04   2.2736403e+04   2.2775711e+04   2.2815019e+04   2.2853403e+04   2.2891788e+04   2.2928475e+04   2.2965163e+04   2.2999802e+04   2.3034442e+04   2.3067028e+04   2.3099613e+04   2.3130340e+04   2.3161066e+04   2.3190227e+04   2.3219387e+04   2.3247265e+04   2.3275142e+04   2.3301444e+04   2.3327658e+04   2.3353767e+04   2.3379754e+04   2.3405636e+04   2.3431473e+04   2.3457297e+04   2.3483181e+04   2.3509133e+04   2.3535251e+04   2.3561528e+04   2.3588078e+04   2.3614874e+04   2.3642029e+04   2.3669490e+04   2.3697356e+04   2.3725558e+04   2.3754223e+04   2.3783289e+04   2.3812953e+04   2.3843161e+04   2.3874177e+04   2.3905944e+04   2.3938745e+04   2.3972486e+04   2.4007404e+04   2.4043347e+04   2.4080515e+04   2.4118694e+04   2.4158162e+04   2.4198767e+04   2.4240940e+04   2.4284547e+04   2.4330055e+04   2.4377285e+04   2.4426629e+04   2.4477833e+04   2.4531083e+04   2.4585945e+04   2.4642461e+04   2.4700219e+04   2.4759261e+04   2.4819185e+04   2.4880442e+04   2.4942724e+04   2.5018512e+04   2.5109085e+04   2.5216614e+04   2.5338494e+04   2.5466547e+04   2.5589828e+04   2.5767544e+04   2.5953694e+04   2.6135908e+04   2.6341494e+04   2.6560046e+04   2.6789777e+04   2.7038744e+04   2.7297400e+04   2.7562499e+04   2.7831802e+04   2.8111278e+04   2.8398663e+04   2.8699149e+04   2.9008408e+04   2.9326345e+04   2.9649691e+04   2.9978729e+04   3.0311260e+04   3.0650273e+04   3.0990898e+04   3.1335357e+04   3.1682439e+04   3.2032466e+04   3.2384550e+04   3.2738863e+04   3.3094769e+04
8.8132934e+03   9.1679812e+03   9.4955754e+03   9.8108047e+03   1.0125830e+04   1.0449028e+04   1.0785059e+04   1.1131085e+04   1.1482439e+04   1.1837124e+04   1.2194278e+04   1.2552664e+04   1.2912335e+04   1.3276248e+04   1.3648994e+04   1.4027640e+04   1.4397070e+04   1.4748456e+04   1.5081493e+04   1.5396853e+04   1.5697264e+04   1.5986916e+04   1.6270183e+04   1.6551036e+04   1.6833429e+04   1.7120293e+04   1.7409831e+04   1.7696423e+04   1.7947001e+04   1.8166344e+04   1.8375115e+04   1.8583946e+04   1.8800525e+04   1.9011435e+04   1.9206454e+04   1.9392084e+04   1.9568228e+04   1.9724150e+04   1.9852777e+04   1.9960446e+04   2.0054052e+04   2.0138318e+04   2.0215669e+04   2.0287859e+04   2.0355585e+04   2.0419696e+04   2.0481174e+04   2.0542803e+04   2.0605324e+04   2.0657356e+04   2.0709388e+04   2.0759146e+04   2.0808904e+04   2.0852840e+04   2.0896776e+04   2.0936335e+04   2.0975893e+04   2.1012549e+04   2.1049205e+04   2.1084039e+04   2.1118872e+04   2.1161857e+04   2.1204843e+04   2.1254520e+04   2.1304198e+04   2.1357976e+04   2.1411755e+04   2.1468313e+04   2.1524872e+04   2.1582967e+04   2.1641062e+04   2.1699657e+04   2.1758252e+04   2.1815697e+04   2.1873142e+04   2.1929327e+04   2.1985512e+04   2.2038322e+04   2.2091131e+04   2.2141214e+04   2.2191298e+04   2.2240794e+04   2.2290289e+04   2.2336865e+04   2.2383440e+04   2.2425551e+04   2.2467662e+04   2.2515420e+04   2.2563178e+04   2.2608283e+04   2.2653388e+04   2.2692853e+04   2.2732317e+04   2.2771644e+04   2.2810971e+04   2.2849143e+04   2.2887314e+04   2.2923647e+04   2.2959979e+04   2.2994224e+04   2.3028467e+04   2.3060697e+04   2.3092927e+04   2.3123379e+04   2.3153831e+04   2.3182820e+04   2.3211809e+04   2.3239609e+04   2.3267408e+04   2.3293682e+04   2.3319890e+04   2.3346016e+04   2.3372042e+04   2.3397980e+04   2.3423896e+04   2.3449806e+04   2.3475766e+04   2.3501782e+04   2.3527948e+04   2.3554261e+04   2.3580829e+04   2.3607630e+04   2.3634770e+04   2.3662197e+04   2.3689999e+04   2.3718107e+04   2.3746647e+04   2.3775560e+04   2.3805055e+04   2.3835091e+04   2.3865945e+04   2.3897571e+04   2.3930256e+04   2.3963908e+04   2.3998747e+04   2.4034612e+04   2.4071673e+04   2.4109697e+04   2.4148960e+04   2.4189326e+04   2.4231268e+04   2.4274675e+04   2.4320052e+04   2.4367233e+04   2.4416619e+04   2.4467948e+04   2.4521371e+04   2.4576408e+04   2.4633061e+04   2.4690910e+04   2.4749999e+04   2.4809947e+04   2.4871144e+04   2.4933202e+04   2.5008439e+04   2.5098410e+04   2.5205837e+04   2.5328273e+04   2.5456993e+04   2.5580670e+04   2.5760417e+04   2.5946280e+04   2.6125340e+04   2.6334054e+04   2.6555506e+04   2.6786462e+04   2.7036970e+04   2.7296376e+04   2.7561645e+04   2.7830399e+04   2.8110037e+04   2.8397153e+04   2.8697915e+04   2.9007307e+04   2.9325618e+04   2.9648961e+04   2.9978103e+04   3.0310889e+04   3.0648244e+04   3.0988755e+04   3.1333088e+04   3.1680113e+04   3.2030096e+04   3.2382184e+04   3.2736516e+04   3.3092475e+04
8.8148592e+03   9.1702356e+03   9.4982744e+03   9.8118759e+03   1.0120486e+04   1.0433784e+04   1.0760297e+04   1.1100471e+04   1.1449743e+04   1.1804315e+04   1.2162195e+04   1.2521764e+04   1.2882976e+04   1.3248681e+04   1.3622852e+04   1.4001720e+04   1.4370941e+04   1.4722680e+04   1.5056454e+04   1.5372858e+04   1.5674878e+04   1.5966962e+04   1.6253628e+04   1.6539098e+04   1.6827379e+04   1.7120230e+04   1.7413518e+04   1.7700058e+04   1.7946386e+04   1.8162499e+04   1.8372328e+04   1.8584881e+04   1.8800145e+04   1.9007014e+04   1.9199489e+04   1.9385114e+04   1.9561691e+04   1.9717908e+04   1.9847336e+04   1.9956286e+04   2.0051140e+04   2.0136365e+04   2.0214313e+04   2.0286751e+04   2.0354466e+04   2.0418370e+04   2.0480479e+04   2.0541129e+04   2.0597269e+04   2.0648832e+04   2.0700395e+04   2.0749807e+04   2.0799220e+04   2.0843190e+04   2.0887162e+04   2.0926993e+04   2.0966825e+04   2.1004354e+04   2.1041883e+04   2.1078076e+04   2.1114269e+04   2.1157853e+04   2.1201437e+04   2.1251194e+04   2.1300952e+04   2.1354779e+04   2.1408605e+04   2.1465062e+04   2.1521519e+04   2.1578652e+04   2.1635785e+04   2.1692951e+04   2.1750117e+04   2.1806313e+04   2.1862509e+04   2.1917836e+04   2.1973164e+04   2.2026263e+04   2.2079361e+04   2.2130563e+04   2.2181764e+04   2.2231808e+04   2.2281852e+04   2.2329189e+04   2.2376526e+04   2.2420427e+04   2.2464327e+04   2.2511745e+04   2.2559163e+04   2.2603767e+04   2.2648371e+04   2.2690026e+04   2.2731681e+04   2.2771046e+04   2.2810410e+04   2.2847533e+04   2.2884658e+04   2.2919402e+04   2.2954147e+04   2.2987174e+04   2.3020200e+04   2.3051818e+04   2.3083436e+04   2.3113148e+04   2.3142859e+04   2.3171179e+04   2.3199497e+04   2.3227073e+04   2.3254648e+04   2.3281051e+04   2.3307520e+04   2.3333985e+04   2.3360407e+04   2.3386766e+04   2.3413099e+04   2.3439407e+04   2.3465737e+04   2.3492089e+04   2.3518540e+04   2.3545086e+04   2.3571813e+04   2.3598706e+04   2.3625851e+04   2.3653210e+04   2.3680908e+04   2.3708897e+04   2.3737382e+04   2.3766314e+04   2.3795968e+04   2.3826278e+04   2.3857526e+04   2.3889603e+04   2.3922714e+04   2.3956689e+04   2.3991610e+04   2.4027269e+04   2.4063576e+04   2.4100408e+04   2.4138420e+04   2.4177712e+04   2.4218910e+04   2.4261914e+04   2.4307205e+04   2.4354527e+04   2.4404175e+04   2.4455747e+04   2.4508978e+04   2.4563334e+04   2.4618970e+04   2.4675643e+04   2.4733533e+04   2.4792368e+04   2.4852542e+04   2.4913737e+04   2.4987714e+04   2.5077351e+04   2.5185801e+04   2.5309659e+04   2.5440562e+04   2.5567321e+04   2.5747044e+04   2.5931456e+04   2.6111493e+04   2.6320077e+04   2.6543388e+04   2.6777521e+04   2.7027813e+04   2.7285022e+04   2.7548907e+04   2.7817284e+04   2.8096046e+04   2.8382481e+04   2.8683184e+04   2.8993179e+04   2.9311761e+04   2.9635025e+04   2.9963876e+04   3.0296316e+04   3.0633334e+04   3.0973603e+04   3.1317774e+04   3.1664734e+04   3.2014709e+04   3.2366837e+04   3.2721255e+04   3.3077325e+04
8.8154423e+03   9.1728750e+03   9.5024046e+03   9.8147851e+03   1.0118462e+04   1.0424572e+04   1.0742667e+04   1.1075813e+04   1.1421396e+04   1.1774693e+04   1.2132377e+04   1.2492446e+04   1.2854779e+04   1.3222029e+04   1.3597401e+04   1.3976573e+04   1.4346076e+04   1.4698571e+04   1.5033409e+04   1.5351299e+04   1.5655378e+04   1.5950147e+04   1.6240220e+04   1.6530074e+04   1.6823620e+04   1.7121163e+04   1.7416398e+04   1.7701201e+04   1.7943273e+04   1.8157788e+04   1.8370224e+04   1.8585494e+04   1.8801099e+04   1.9005049e+04   1.9193806e+04   1.9377830e+04   1.9553660e+04   1.9708096e+04   1.9836569e+04   1.9945538e+04   2.0040779e+04   2.0126413e+04   2.0204638e+04   2.0277150e+04   2.0344766e+04   2.0408403e+04   2.0469793e+04   2.0529333e+04   2.0589214e+04   2.0640308e+04   2.0691403e+04   2.0740469e+04   2.0789536e+04   2.0833541e+04   2.0877547e+04   2.0917652e+04   2.0957757e+04   2.0996159e+04   2.1034562e+04   2.1072114e+04   2.1109666e+04   2.1153848e+04   2.1198031e+04   2.1247869e+04   2.1297706e+04   2.1351581e+04   2.1405456e+04   2.1461812e+04   2.1518167e+04   2.1574338e+04   2.1630508e+04   2.1686245e+04   2.1741982e+04   2.1796929e+04   2.1851875e+04   2.1906345e+04   2.1960815e+04   2.2014203e+04   2.2067591e+04   2.2119910e+04   2.2172230e+04   2.2222822e+04   2.2273415e+04   2.2321514e+04   2.2369612e+04   2.2415303e+04   2.2460993e+04   2.2508071e+04   2.2555148e+04   2.2599252e+04   2.2643354e+04   2.2687200e+04   2.2731047e+04   2.2770447e+04   2.2809848e+04   2.2845925e+04   2.2882002e+04   2.2915158e+04   2.2948314e+04   2.2980124e+04   2.3011934e+04   2.3042940e+04   2.3073945e+04   2.3102916e+04   2.3131888e+04   2.3159537e+04   2.3187186e+04   2.3214536e+04   2.3241887e+04   2.3268419e+04   2.3295149e+04   2.3321954e+04   2.3348771e+04   2.3375553e+04   2.3402301e+04   2.3429009e+04   2.3455707e+04   2.3482397e+04   2.3509132e+04   2.3535912e+04   2.3562798e+04   2.3589782e+04   2.3616931e+04   2.3644224e+04   2.3671817e+04   2.3699689e+04   2.3728118e+04   2.3757068e+04   2.3786880e+04   2.3817465e+04   2.3849107e+04   2.3881634e+04   2.3915171e+04   2.3949468e+04   2.3984472e+04   2.4019926e+04   2.4055479e+04   2.4091120e+04   2.4127881e+04   2.4166098e+04   2.4206550e+04   2.4249153e+04   2.4294359e+04   2.4341821e+04   2.4391730e+04   2.4443547e+04   2.4496586e+04   2.4550260e+04   2.4604880e+04   2.4660375e+04   2.4717066e+04   2.4774788e+04   2.4833940e+04   2.4894271e+04   2.4966991e+04   2.5056291e+04   2.5165765e+04   2.5291046e+04   2.5424131e+04   2.5553971e+04   2.5733672e+04   2.5916631e+04   2.6097645e+04   2.6306099e+04   2.6531269e+04   2.6768579e+04   2.7018656e+04   2.7273668e+04   2.7536168e+04   2.7804168e+04   2.8082055e+04   2.8367809e+04   2.8668455e+04   2.8979049e+04   2.9297903e+04   2.9621088e+04   2.9949649e+04   3.0281743e+04   3.0618424e+04   3.0958450e+04   3.1302461e+04   3.1649355e+04   3.1999322e+04   3.2351489e+04   3.2705993e+04   3.3062174e+04
8.8148439e+03   9.1751737e+03   9.5069222e+03   9.8194574e+03   1.0121489e+04   1.0423538e+04   1.0733931e+04   1.1058403e+04   1.1398164e+04   1.1748777e+04   1.2105315e+04   1.2465155e+04   1.2828108e+04   1.3196515e+04   1.3572783e+04   1.3952384e+04   1.4322758e+04   1.4676566e+04   1.5012900e+04   1.5332718e+04   1.5639213e+04   1.5936806e+04   1.6230180e+04   1.6524027e+04   1.6821939e+04   1.7122558e+04   1.7417744e+04   1.7699101e+04   1.7937193e+04   1.8151673e+04   1.8367852e+04   1.8588380e+04   1.8807949e+04   1.9008278e+04   1.9194085e+04   1.9376142e+04   1.9549874e+04   1.9701456e+04   1.9828684e+04   1.9937391e+04   2.0032567e+04   2.0118100e+04   2.0195960e+04   2.0268007e+04   2.0335018e+04   2.0398076e+04   2.0457953e+04   2.0517814e+04   2.0583419e+04   2.0634012e+04   2.0684606e+04   2.0733298e+04   2.0781989e+04   2.0826029e+04   2.0870070e+04   2.0910351e+04   2.0950631e+04   2.0989705e+04   2.1028779e+04   2.1067458e+04   2.1106137e+04   2.1150857e+04   2.1195577e+04   2.1245621e+04   2.1295666e+04   2.1349490e+04   2.1403312e+04   2.1459379e+04   2.1515446e+04   2.1571063e+04   2.1626679e+04   2.1681672e+04   2.1736664e+04   2.1791034e+04   2.1845402e+04   2.1899458e+04   2.1953513e+04   2.2007279e+04   2.2061043e+04   2.2114530e+04   2.2168016e+04   2.2218880e+04   2.2269743e+04   2.2317803e+04   2.2365862e+04   2.2411761e+04   2.2457660e+04   2.2504397e+04   2.2551133e+04   2.2594736e+04   2.2638338e+04   2.2681812e+04   2.2725286e+04   2.2765909e+04   2.2806531e+04   2.2845491e+04   2.2884451e+04   2.2920451e+04   2.2956452e+04   2.2990891e+04   2.3025330e+04   2.3059329e+04   2.3093327e+04   2.3123697e+04   2.3154067e+04   2.3178835e+04   2.3203604e+04   2.3228689e+04   2.3253775e+04   2.3278223e+04   2.3303118e+04   2.3328265e+04   2.3353569e+04   2.3378951e+04   2.3404400e+04   2.3429890e+04   2.3455457e+04   2.3481091e+04   2.3506854e+04   2.3532738e+04   2.3558820e+04   2.3585089e+04   2.3611630e+04   2.3638417e+04   2.3665583e+04   2.3693091e+04   2.3721127e+04   2.3749625e+04   2.3778787e+04   2.3808494e+04   2.3838908e+04   2.3869843e+04   2.3901378e+04   2.3933265e+04   2.3965497e+04   2.3997800e+04   2.4030701e+04   2.4064825e+04   2.4101298e+04   2.4140178e+04   2.4181786e+04   2.4225728e+04   2.4272110e+04   2.4320402e+04   2.4370601e+04   2.4421984e+04   2.4474080e+04   2.4526787e+04   2.4580771e+04   2.4636062e+04   2.4693055e+04   2.4751555e+04   2.4811935e+04   2.4873941e+04   2.4948424e+04   2.5039977e+04   2.5151617e+04   2.5279288e+04   2.5414006e+04   2.5541136e+04   2.5720596e+04   2.5902592e+04   2.6090339e+04   2.6298716e+04   2.6525209e+04   2.6764330e+04   2.7012702e+04   2.7265160e+04   2.7526414e+04   2.7794120e+04   2.8070947e+04   2.8356147e+04   2.8657975e+04   2.8969807e+04   2.9288866e+04   2.9611877e+04   2.9940037e+04   3.0271824e+04   3.0608287e+04   3.0948223e+04   3.1292257e+04   3.1639250e+04   3.1989346e+04   3.2341663e+04   3.2696328e+04   3.3052681e+04
8.8132588e+03   9.1758116e+03   9.5098967e+03   9.8252709e+03   1.0130133e+04   1.0431308e+04   1.0734922e+04   1.1049539e+04   1.1381192e+04   1.1727328e+04   1.2081666e+04   1.2440530e+04   1.2803529e+04   1.3172607e+04   1.3549420e+04   1.3929556e+04   1.4301363e+04   1.4657108e+04   1.4995443e+04   1.5317582e+04   1.5626741e+04   1.5927187e+04   1.6223653e+04   1.6520938e+04   1.6822049e+04   1.7123888e+04   1.7417015e+04   1.7693481e+04   1.7928226e+04   1.8144042e+04   1.8364804e+04   1.8591872e+04   1.8811938e+04   1.9009722e+04   1.9194351e+04   1.9375685e+04   1.9547987e+04   1.9699217e+04   1.9827452e+04   1.9937793e+04   2.0034289e+04   2.0120643e+04   2.0198718e+04   2.0270596e+04   2.0337132e+04   2.0399569e+04   2.0459565e+04   2.0518966e+04   2.0577624e+04   2.0627716e+04   2.0677809e+04   2.0726126e+04   2.0774443e+04   2.0818518e+04   2.0862593e+04   2.0903048e+04   2.0943504e+04   2.0983250e+04   2.1022997e+04   2.1062802e+04   2.1102608e+04   2.1147865e+04   2.1193122e+04   2.1243374e+04   2.1293627e+04   2.1347397e+04   2.1401168e+04   2.1456946e+04   2.1512724e+04   2.1567787e+04   2.1622850e+04   2.1677098e+04   2.1731347e+04   2.1785138e+04   2.1838929e+04   2.1892570e+04   2.1946212e+04   2.2000355e+04   2.2054497e+04   2.2109149e+04   2.2163802e+04   2.2214936e+04   2.2266071e+04   2.2314092e+04   2.2362112e+04   2.2408220e+04   2.2454326e+04   2.2500722e+04   2.2547118e+04   2.2590220e+04   2.2633322e+04   2.2676424e+04   2.2719526e+04   2.2761369e+04   2.2803213e+04   2.2845057e+04   2.2886900e+04   2.2925745e+04   2.2964590e+04   2.3001659e+04   2.3038727e+04   2.3075718e+04   2.3112709e+04   2.3144478e+04   2.3176246e+04   2.3198134e+04   2.3220021e+04   2.3242842e+04   2.3265663e+04   2.3288027e+04   2.3311085e+04   2.3334576e+04   2.3358369e+04   2.3382348e+04   2.3406499e+04   2.3430771e+04   2.3455208e+04   2.3479786e+04   2.3504577e+04   2.3529565e+04   2.3554844e+04   2.3580397e+04   2.3606329e+04   2.3632609e+04   2.3659349e+04   2.3686494e+04   2.3714137e+04   2.3742182e+04   2.3770694e+04   2.3799523e+04   2.3828708e+04   2.3858051e+04   2.3887586e+04   2.3917062e+04   2.3946522e+04   2.3975674e+04   2.4005924e+04   2.4038529e+04   2.4074715e+04   2.4114257e+04   2.4157021e+04   2.4202303e+04   2.4249861e+04   2.4298983e+04   2.4349472e+04   2.4400419e+04   2.4451574e+04   2.4503315e+04   2.4556662e+04   2.4611749e+04   2.4669043e+04   2.4728322e+04   2.4789930e+04   2.4853610e+04   2.4929858e+04   2.5023664e+04   2.5137470e+04   2.5267528e+04   2.5403881e+04   2.5528300e+04   2.5707521e+04   2.5888553e+04   2.6083033e+04   2.6291333e+04   2.6519147e+04   2.6760080e+04   2.7006747e+04   2.7256651e+04   2.7516661e+04   2.7784070e+04   2.8059839e+04   2.8344485e+04   2.8647495e+04   2.8960564e+04   2.9279828e+04   2.9602666e+04   2.9930425e+04   3.0261904e+04   3.0598150e+04   3.0937996e+04   3.1282052e+04   3.1629143e+04   3.1979370e+04   3.2331837e+04   3.2686661e+04   3.3043189e+04
8.8118992e+03   9.1747790e+03   9.5111112e+03   9.8322749e+03   1.0143830e+04   1.0446855e+04   1.0745441e+04   1.1050411e+04   1.1372128e+04   1.1711539e+04   1.2062279e+04   1.2419337e+04   1.2781737e+04   1.3150920e+04   1.3527918e+04   1.3908648e+04   1.4282345e+04   1.4640637e+04   1.4981480e+04   1.5306266e+04   1.5618223e+04   1.5921465e+04   1.6220717e+04   1.6520710e+04   1.6823604e+04   1.7124683e+04   1.7413944e+04   1.7684671e+04   1.7917160e+04   1.8135458e+04   1.8360431e+04   1.8589749e+04   1.8806457e+04   1.9002365e+04   1.9187981e+04   1.9370156e+04   1.9542452e+04   1.9694272e+04   1.9823984e+04   1.9935986e+04   2.0033871e+04   2.0121180e+04   2.0199763e+04   2.0271734e+04   2.0338035e+04   2.0399943e+04   2.0459704e+04   2.0517412e+04   2.0571072e+04   2.0620195e+04   2.0669318e+04   2.0716663e+04   2.0764008e+04   2.0807656e+04   2.0851304e+04   2.0891643e+04   2.0931983e+04   2.0972221e+04   2.1012458e+04   2.1053355e+04   2.1094251e+04   2.1140193e+04   2.1186135e+04   2.1236228e+04   2.1286321e+04   2.1339773e+04   2.1393224e+04   2.1448814e+04   2.1504404e+04   2.1559515e+04   2.1614625e+04   2.1668984e+04   2.1723342e+04   2.1776487e+04   2.1829632e+04   2.1882166e+04   2.1934700e+04   2.1988690e+04   2.2042678e+04   2.2098379e+04   2.2154079e+04   2.2205099e+04   2.2256119e+04   2.2304690e+04   2.2353262e+04   2.2401912e+04   2.2450560e+04   2.2496663e+04   2.2542767e+04   2.2585809e+04   2.2628852e+04   2.2671895e+04   2.2714937e+04   2.2756719e+04   2.2798499e+04   2.2840280e+04   2.2882061e+04   2.2920833e+04   2.2959603e+04   2.2998374e+04   2.3037145e+04   2.3074651e+04   2.3112158e+04   2.3147071e+04   2.3181985e+04   2.3203925e+04   2.3225864e+04   2.3248235e+04   2.3270606e+04   2.3293125e+04   2.3315638e+04   2.3338206e+04   2.3360886e+04   2.3383681e+04   2.3406643e+04   2.3429757e+04   2.3453095e+04   2.3476638e+04   2.3500492e+04   2.3524637e+04   2.3549207e+04   2.3574176e+04   2.3599671e+04   2.3625640e+04   2.3652158e+04   2.3679127e+04   2.3706542e+04   2.3734274e+04   2.3762257e+04   2.3790352e+04   2.3818494e+04   2.3846563e+04   2.3874551e+04   2.3902369e+04   2.3930106e+04   2.3957703e+04   2.3987796e+04   2.4021380e+04   2.4058777e+04   2.4099373e+04   2.4142771e+04   2.4188281e+04   2.4235492e+04   2.4283795e+04   2.4332731e+04   2.4381707e+04   2.4431106e+04   2.4481410e+04   2.4533652e+04   2.4588028e+04   2.4644836e+04   2.4703878e+04   2.4765627e+04   2.4829872e+04   2.4907013e+04   2.5002312e+04   2.5117303e+04   2.5248078e+04   2.5382255e+04   2.5500643e+04   2.5680273e+04   2.5866739e+04   2.6065968e+04   2.6274136e+04   2.6504823e+04   2.6747582e+04   2.6993292e+04   2.7243565e+04   2.7504916e+04   2.7774449e+04   2.8051529e+04   2.8338399e+04   2.8643852e+04   2.8958108e+04   2.9277166e+04   2.9599595e+04   2.9926834e+04   3.0258162e+04   3.0594362e+04   3.0934430e+04   3.1278787e+04   3.1626346e+04   3.1976987e+04   3.2329932e+04   3.2685178e+04   3.3042190e+04
8.8118565e+03   9.1733454e+03   9.5123717e+03   9.8413601e+03   1.0161461e+04   1.0468384e+04   1.0764660e+04   1.1061918e+04   1.1373049e+04   1.1703300e+04   1.2048433e+04   1.2402558e+04   1.2763584e+04   1.3132226e+04   1.3509017e+04   1.3890319e+04   1.4266216e+04   1.4627571e+04   1.4971382e+04   1.5299047e+04   1.5613841e+04   1.5919743e+04   1.6221379e+04   1.6523171e+04   1.6826239e+04   1.7124614e+04   1.7408663e+04   1.7673620e+04   1.7905227e+04   1.8126542e+04   1.8353527e+04   1.8579800e+04   1.8791038e+04   1.8986831e+04   1.9175273e+04   1.9359223e+04   1.9531747e+04   1.9683577e+04   1.9813539e+04   1.9926020e+04   2.0024560e+04   2.0112666e+04   2.0192049e+04   2.0264732e+04   2.0331576e+04   2.0393836e+04   2.0453431e+04   2.0511627e+04   2.0569064e+04   2.0617707e+04   2.0666350e+04   2.0713201e+04   2.0760052e+04   2.0803307e+04   2.0846564e+04   2.0886462e+04   2.0926361e+04   2.0966773e+04   2.1007185e+04   2.1048904e+04   2.1090622e+04   2.1136315e+04   2.1182007e+04   2.1230740e+04   2.1279473e+04   2.1331464e+04   2.1383456e+04   2.1438169e+04   2.1492882e+04   2.1547945e+04   2.1603007e+04   2.1657753e+04   2.1712498e+04   2.1766008e+04   2.1819516e+04   2.1872143e+04   2.1924770e+04   2.1978541e+04   2.2032314e+04   2.2087301e+04   2.2142288e+04   2.2194521e+04   2.2246753e+04   2.2296701e+04   2.2346648e+04   2.2396721e+04   2.2446793e+04   2.2492604e+04   2.2538415e+04   2.2581398e+04   2.2624382e+04   2.2667365e+04   2.2710349e+04   2.2752067e+04   2.2793785e+04   2.2835503e+04   2.2877221e+04   2.2915919e+04   2.2954615e+04   2.2993313e+04   2.3032010e+04   2.3069438e+04   2.3106866e+04   2.3143176e+04   2.3179487e+04   2.3203818e+04   2.3228148e+04   2.3251009e+04   2.3273870e+04   2.3296462e+04   2.3318962e+04   2.3341426e+04   2.3363875e+04   2.3386319e+04   2.3408813e+04   2.3431366e+04   2.3454089e+04   2.3476986e+04   2.3500200e+04   2.3523731e+04   2.3547730e+04   2.3572173e+04   2.3597169e+04   2.3622641e+04   2.3648612e+04   2.3674960e+04   2.3701630e+04   2.3728487e+04   2.3755444e+04   2.3782377e+04   2.3809268e+04   2.3836022e+04   2.3862803e+04   2.3889596e+04   2.3916762e+04   2.3944337e+04   2.3974869e+04   2.4009180e+04   2.4047321e+04   2.4088536e+04   2.4132164e+04   2.4177478e+04   2.4224050e+04   2.4271522e+04   2.4319605e+04   2.4367866e+04   2.4417148e+04   2.4467917e+04   2.4520876e+04   2.4575990e+04   2.4633405e+04   2.4692841e+04   2.4754677e+04   2.4818854e+04   2.4895080e+04   2.4989044e+04   2.5102552e+04   2.5231188e+04   2.5364743e+04   2.5493134e+04   2.5672545e+04   2.5859699e+04   2.6058381e+04   2.6266741e+04   2.6493343e+04   2.6731913e+04   2.6975974e+04   2.7227839e+04   2.7489773e+04   2.7760877e+04   2.8037710e+04   2.8325756e+04   2.8632281e+04   2.8947920e+04   2.9266483e+04   2.9588885e+04   2.9915612e+04   3.0247347e+04   3.0583568e+04   3.0924345e+04   3.1269102e+04   3.1617571e+04   3.1968750e+04   3.2322508e+04   3.2678264e+04   3.3035966e+04
8.8128625e+03   9.1729282e+03   9.5160324e+03   9.8534656e+03   1.0182068e+04   1.0494369e+04   1.0791708e+04   1.1084583e+04   1.1386096e+04   1.1705253e+04   1.2042140e+04   1.2391583e+04   1.2750168e+04   1.3117484e+04   1.3493578e+04   1.3875298e+04   1.4253522e+04   1.4618314e+04   1.4965453e+04   1.5296136e+04   1.5613718e+04   1.5922076e+04   1.6225590e+04   1.6528112e+04   1.6829650e+04   1.7123626e+04   1.7401790e+04   1.7661685e+04   1.7893612e+04   1.8117498e+04   1.8343479e+04   1.8563587e+04   1.8770501e+04   1.8968398e+04   1.9160580e+04   1.9346457e+04   1.9519412e+04   1.9671469e+04   1.9801941e+04   1.9915376e+04   2.0015330e+04   2.0105119e+04   2.0186204e+04   2.0260396e+04   2.0328459e+04   2.0391609e+04   2.0451684e+04   2.0510640e+04   2.0570073e+04   2.0618298e+04   2.0666524e+04   2.0712808e+04   2.0759094e+04   2.0801545e+04   2.0843997e+04   2.0882979e+04   2.0921962e+04   2.0962075e+04   2.1002188e+04   2.1043971e+04   2.1085754e+04   2.1130194e+04   2.1174633e+04   2.1221157e+04   2.1267680e+04   2.1317730e+04   2.1367781e+04   2.1421375e+04   2.1474971e+04   2.1529899e+04   2.1584828e+04   2.1639884e+04   2.1694939e+04   2.1749102e+04   2.1803264e+04   2.1856686e+04   2.1910109e+04   2.1963867e+04   2.2017626e+04   2.2071742e+04   2.2125859e+04   2.2178937e+04   2.2232015e+04   2.2282101e+04   2.2332185e+04   2.2384519e+04   2.2436853e+04   2.2481908e+04   2.2526962e+04   2.2570883e+04   2.2614805e+04   2.2659316e+04   2.2703827e+04   2.2747575e+04   2.2791321e+04   2.2832830e+04   2.2874340e+04   2.2913764e+04   2.2953189e+04   2.2991059e+04   2.3028930e+04   2.3066334e+04   2.3103737e+04   2.3140153e+04   2.3176568e+04   2.3202982e+04   2.3229395e+04   2.3253176e+04   2.3276957e+04   2.3300352e+04   2.3323624e+04   2.3346689e+04   2.3369389e+04   2.3391725e+04   2.3413748e+04   2.3435555e+04   2.3457366e+04   2.3479288e+04   2.3501544e+04   2.3524174e+04   2.3547280e+04   2.3570789e+04   2.3594708e+04   2.3618918e+04   2.3643429e+04   2.3668129e+04   2.3693042e+04   2.3718038e+04   2.3743143e+04   2.3768147e+04   2.3793212e+04   2.3818350e+04   2.3844095e+04   2.3870527e+04   2.3898307e+04   2.3927472e+04   2.3959982e+04   2.3996270e+04   2.4036083e+04   2.4078461e+04   2.4122651e+04   2.4168115e+04   2.4214639e+04   2.4261755e+04   2.4309273e+04   2.4357148e+04   2.4406679e+04   2.4458517e+04   2.4512876e+04   2.4569247e+04   2.4627470e+04   2.4687302e+04   2.4749161e+04   2.4813104e+04   2.4887589e+04   2.4978971e+04   2.5089787e+04   2.5216961e+04   2.5352553e+04   2.5487031e+04   2.5666128e+04   2.5853780e+04   2.6051926e+04   2.6260099e+04   2.6481518e+04   2.6715329e+04   2.6957352e+04   2.7209298e+04   2.7470366e+04   2.7741610e+04   2.8020168e+04   2.8310774e+04   2.8615650e+04   2.8929618e+04   2.9246532e+04   2.9568251e+04   2.9894230e+04   3.0226074e+04   3.0562145e+04   3.0903325e+04   3.1248183e+04   3.1597094e+04   3.1948285e+04   3.2302312e+04   3.2658408e+04   3.3016550e+04
8.8137445e+03   9.1746977e+03   9.5237483e+03   9.8691335e+03   1.0205111e+04   1.0523971e+04   1.0825901e+04   1.1118512e+04   1.1413049e+04   1.1720566e+04   1.2046391e+04   1.2388521e+04   1.2742982e+04   1.3107891e+04   1.3482607e+04   1.3864381e+04   1.4244829e+04   1.4613251e+04   1.4963960e+04   1.5297699e+04   1.5617936e+04   1.5928465e+04   1.6233245e+04   1.6535306e+04   1.6833677e+04   1.7122027e+04   1.7394353e+04   1.7650306e+04   1.7883195e+04   1.8108490e+04   1.8331356e+04   1.8545536e+04   1.8750625e+04   1.8951625e+04   1.9147115e+04   1.9334700e+04   1.9508631e+04   1.9661763e+04   1.9793505e+04   1.9908475e+04   2.0010278e+04   2.0102088e+04   2.0185161e+04   2.0261123e+04   2.0330574e+04   2.0394687e+04   2.0455318e+04   2.0514690e+04   2.0575042e+04   2.0622577e+04   2.0670111e+04   2.0715375e+04   2.0760639e+04   2.0801937e+04   2.0843235e+04   2.0881156e+04   2.0919078e+04   2.0958361e+04   2.0997646e+04   2.1038727e+04   2.1079810e+04   2.1122955e+04   2.1166101e+04   2.1210867e+04   2.1255632e+04   2.1303984e+04   2.1352336e+04   2.1404573e+04   2.1456810e+04   2.1511057e+04   2.1565305e+04   2.1620018e+04   2.1674731e+04   2.1728834e+04   2.1782938e+04   2.1836490e+04   2.1890043e+04   2.1943549e+04   2.1997055e+04   2.2051280e+04   2.2105506e+04   2.2160442e+04   2.2215379e+04   2.2269865e+04   2.2324350e+04   2.2379686e+04   2.2435022e+04   2.2479730e+04   2.2524439e+04   2.2567309e+04   2.2610177e+04   2.2654420e+04   2.2698662e+04   2.2743043e+04   2.2787423e+04   2.2828669e+04   2.2869915e+04   2.2908858e+04   2.2947801e+04   2.2985852e+04   2.3023904e+04   2.3061647e+04   2.3099390e+04   2.3135141e+04   2.3170891e+04   2.3201821e+04   2.3232752e+04   2.3259573e+04   2.3286395e+04   2.3310008e+04   2.3333567e+04   2.3356582e+04   2.3378775e+04   2.3400231e+04   2.3420862e+04   2.3440927e+04   2.3460900e+04   2.3481000e+04   2.3501627e+04   2.3522760e+04   2.3544237e+04   2.3565886e+04   2.3587510e+04   2.3609054e+04   2.3630650e+04   2.3652283e+04   2.3674171e+04   2.3696171e+04   2.3718374e+04   2.3740683e+04   2.3764241e+04   2.3789106e+04   2.3815872e+04   2.3844431e+04   2.3875226e+04   2.3908087e+04   2.3944005e+04   2.3982952e+04   2.4024529e+04   2.4068001e+04   2.4112957e+04   2.4158975e+04   2.4205555e+04   2.4252411e+04   2.4299726e+04   2.4347790e+04   2.4397953e+04   2.4450586e+04   2.4505575e+04   2.4562317e+04   2.4620625e+04   2.4680321e+04   2.4741826e+04   2.4805291e+04   2.4878087e+04   2.4966686e+04   2.5074518e+04   2.5200531e+04   2.5338398e+04   2.5484079e+04   2.5662628e+04   2.5851218e+04   2.6048579e+04   2.6256797e+04   2.6475337e+04   2.6708396e+04   2.6949346e+04   2.7201993e+04   2.7462309e+04   2.7734426e+04   2.8012252e+04   2.8303003e+04   2.8606267e+04   2.8918583e+04   2.9233462e+04   2.9554902e+04   2.9880223e+04   3.0212468e+04   3.0548411e+04   3.0890030e+04   3.1235137e+04   3.1586637e+04   3.1939425e+04   3.2291609e+04   3.2645990e+04   3.3004499e+04
8.8136768e+03   9.1793724e+03   9.5361615e+03   9.8884017e+03   1.0230488e+04   1.0556734e+04   1.0866405e+04   1.1163243e+04   1.1455001e+04   1.1752486e+04   1.2065272e+04   1.2396644e+04   1.2744253e+04   1.3105046e+04   1.3477322e+04   1.3858466e+04   1.4240752e+04   1.4612787e+04   1.4967197e+04   1.5303960e+04   1.5626639e+04   1.5938961e+04   1.6244275e+04   1.6544645e+04   1.6838468e+04   1.7120573e+04   1.7387638e+04   1.7640729e+04   1.7874645e+04   1.8100204e+04   1.8319749e+04   1.8530252e+04   1.8735432e+04   1.8938739e+04   1.9136196e+04   1.9325302e+04   1.9500989e+04   1.9655947e+04   1.9789329e+04   1.9905881e+04   2.0009399e+04   2.0103100e+04   2.0188123e+04   2.0265908e+04   2.0336834e+04   2.0401978e+04   2.0463202e+04   2.0522867e+04   2.0583526e+04   2.0629851e+04   2.0676176e+04   2.0719863e+04   2.0763550e+04   2.0803326e+04   2.0843101e+04   2.0879600e+04   2.0916100e+04   2.0954176e+04   2.0992253e+04   2.1032434e+04   2.1072614e+04   2.1114766e+04   2.1156918e+04   2.1200238e+04   2.1243557e+04   2.1290347e+04   2.1337139e+04   2.1388142e+04   2.1439146e+04   2.1492513e+04   2.1545879e+04   2.1599744e+04   2.1653609e+04   2.1707076e+04   2.1760543e+04   2.1813572e+04   2.1866602e+04   2.1919776e+04   2.1972949e+04   2.2027352e+04   2.2081755e+04   2.2138457e+04   2.2195158e+04   2.2255150e+04   2.2315144e+04   2.2375933e+04   2.2436721e+04   2.2481612e+04   2.2526502e+04   2.2568337e+04   2.2610173e+04   2.2653570e+04   2.2696966e+04   2.2741022e+04   2.2785078e+04   2.2826003e+04   2.2866928e+04   2.2905419e+04   2.2943910e+04   2.2982076e+04   2.3020242e+04   2.3058049e+04   2.3095855e+04   2.3131078e+04   2.3166302e+04   2.3203702e+04   2.3241101e+04   2.3276204e+04   2.3311308e+04   2.3330039e+04   2.3348749e+04   2.3367166e+04   2.3385355e+04   2.3403423e+04   2.3421207e+04   2.3438890e+04   2.3456656e+04   2.3474602e+04   2.3492918e+04   2.3511406e+04   2.3529885e+04   2.3548271e+04   2.3566485e+04   2.3584680e+04   2.3602927e+04   2.3621308e+04   2.3640130e+04   2.3659347e+04   2.3680982e+04   2.3705192e+04   2.3731937e+04   2.3760242e+04   2.3790263e+04   2.3821930e+04   2.3855678e+04   2.3891518e+04   2.3929782e+04   2.3970070e+04   2.4012257e+04   2.4056007e+04   2.4101043e+04   2.4147011e+04   2.4193605e+04   2.4240773e+04   2.4288774e+04   2.4337895e+04   2.4388724e+04   2.4441353e+04   2.4495891e+04   2.4552064e+04   2.4609826e+04   2.4669038e+04   2.4730058e+04   2.4793043e+04   2.4864409e+04   2.4950581e+04   2.5056364e+04   2.5182003e+04   2.5320527e+04   2.5474245e+04   2.5652582e+04   2.5842049e+04   2.6039176e+04   2.6247402e+04   2.6464303e+04   2.6697580e+04   2.6938228e+04   2.7191635e+04   2.7451662e+04   2.7724855e+04   2.8003845e+04   2.8296062e+04   2.8596232e+04   2.8904981e+04   2.9217516e+04   2.9538548e+04   2.9862844e+04   3.0194941e+04   3.0531429e+04   3.0874130e+04   3.1219553e+04   3.1574139e+04   3.1929427e+04   3.2279162e+04   3.2630891e+04   3.2989458e+04
8.8126169e+03   9.1871713e+03   9.5529780e+03   9.9110921e+03   1.0258196e+04   1.0591976e+04   1.0911522e+04   1.1217031e+04   1.1511708e+04   1.1803550e+04   1.2103648e+04   1.2420873e+04   1.2757553e+04   1.3111296e+04   1.3479308e+04   1.3858618e+04   1.4241964e+04   1.4617330e+04   1.4975462e+04   1.5315179e+04   1.5640022e+04   1.5953640e+04   1.6258660e+04   1.6556177e+04   1.6844496e+04   1.7120346e+04   1.7382925e+04   1.7633944e+04   1.7868584e+04   1.8093868e+04   1.8311374e+04   1.8520748e+04   1.8726642e+04   1.8930541e+04   1.9128455e+04   1.9318958e+04   1.9496964e+04   1.9654194e+04   1.9789397e+04   1.9907495e+04   2.0012558e+04   2.0107892e+04   2.0194556e+04   2.0273890e+04   2.0346088e+04   2.0412180e+04   2.0474051e+04   2.0534070e+04   2.0594822e+04   2.0640343e+04   2.0685865e+04   2.0728480e+04   2.0771097e+04   2.0809378e+04   2.0847660e+04   2.0882516e+04   2.0917372e+04   2.0954218e+04   2.0991064e+04   2.1030224e+04   2.1069383e+04   2.1110114e+04   2.1150845e+04   2.1192558e+04   2.1234272e+04   2.1279871e+04   2.1325470e+04   2.1375513e+04   2.1425556e+04   2.1477924e+04   2.1530293e+04   2.1583077e+04   2.1635861e+04   2.1688434e+04   2.1741006e+04   2.1793249e+04   2.1845492e+04   2.1897990e+04   2.1950487e+04   2.2003819e+04   2.2057151e+04   2.2115019e+04   2.2172887e+04   2.2238022e+04   2.2303158e+04   2.2369697e+04   2.2436236e+04   2.2480740e+04   2.2525243e+04   2.2566964e+04   2.2608685e+04   2.2652395e+04   2.2696105e+04   2.2739792e+04   2.2783480e+04   2.2824572e+04   2.2865665e+04   2.2904314e+04   2.2942963e+04   2.2981042e+04   2.3019122e+04   2.3056725e+04   2.3094329e+04   2.3129829e+04   2.3165330e+04   2.3202005e+04   2.3238680e+04   2.3273380e+04   2.3308080e+04   2.3327710e+04   2.3345393e+04   2.3362318e+04   2.3378962e+04   2.3395576e+04   2.3412611e+04   2.3430172e+04   2.3448210e+04   2.3466577e+04   2.3485198e+04   2.3504008e+04   2.3522954e+04   2.3541995e+04   2.3560922e+04   2.3579650e+04   2.3598214e+04   2.3616685e+04   2.3635510e+04   2.3654930e+04   2.3675266e+04   2.3696715e+04   2.3720384e+04   2.3746723e+04   2.3776270e+04   2.3808782e+04   2.3844229e+04   2.3881307e+04   2.3919652e+04   2.3959148e+04   2.4000080e+04   2.4042658e+04   2.4086698e+04   2.4131836e+04   2.4178026e+04   2.4225985e+04   2.4275818e+04   2.4326402e+04   2.4377795e+04   2.4430193e+04   2.4484022e+04   2.4539425e+04   2.4596550e+04   2.4655301e+04   2.4715951e+04   2.4778595e+04   2.4849025e+04   2.4933761e+04   2.5038082e+04   2.5163014e+04   2.5301314e+04   2.5463647e+04   2.5641534e+04   2.5831947e+04   2.6028738e+04   2.6237107e+04   2.6452504e+04   2.6686632e+04   2.6927167e+04   2.7181487e+04   2.7441225e+04   2.7715641e+04   2.7996188e+04   2.8291424e+04   2.8589245e+04   2.8893293e+04   2.9204082e+04   2.9529505e+04   2.9855415e+04   3.0185214e+04   3.0523375e+04   3.0868344e+04   3.1211958e+04   3.1565274e+04   3.1921700e+04   3.2271528e+04   3.2623330e+04   3.2986805e+04
8.8111325e+03   9.1977296e+03   9.5734084e+03   9.9369631e+03   1.0288361e+04   1.0628979e+04   1.0958805e+04   1.1276184e+04   1.1580184e+04   1.1873792e+04   1.2165646e+04   1.2467570e+04   1.2788470e+04   1.3130362e+04   1.3490823e+04   1.3866208e+04   1.4249207e+04   1.4627204e+04   1.4988965e+04   1.5331570e+04   1.5658226e+04   1.5972531e+04   1.6276404e+04   1.6570135e+04   1.6852516e+04   1.7122542e+04   1.7381337e+04   1.7630753e+04   1.7865675e+04   1.8090773e+04   1.8307976e+04   1.8518068e+04   1.8724549e+04   1.8927473e+04   1.9124695e+04   1.9316330e+04   1.9496745e+04   1.9656448e+04   1.9793658e+04   1.9913372e+04   2.0019820e+04   2.0116378e+04   2.0204064e+04   2.0284261e+04   2.0357146e+04   2.0423790e+04   2.0486119e+04   2.0546493e+04   2.0607443e+04   2.0652566e+04   2.0697689e+04   2.0739590e+04   2.0781491e+04   2.0818677e+04   2.0855861e+04   2.0889593e+04   2.0923323e+04   2.0958728e+04   2.0994133e+04   2.1031741e+04   2.1069349e+04   2.1108707e+04   2.1148064e+04   2.1188524e+04   2.1228985e+04   2.1273690e+04   2.1318397e+04   2.1367567e+04   2.1416735e+04   2.1467977e+04   2.1519218e+04   2.1571104e+04   2.1622988e+04   2.1674932e+04   2.1726874e+04   2.1778176e+04   2.1829477e+04   2.1880583e+04   2.1931689e+04   2.1984683e+04   2.2037678e+04   2.2095573e+04   2.2153467e+04   2.2222189e+04   2.2290911e+04   2.2360111e+04   2.2429311e+04   2.2475251e+04   2.2521191e+04   2.2564619e+04   2.2608049e+04   2.2651165e+04   2.2694281e+04   2.2736840e+04   2.2779398e+04   2.2820436e+04   2.2861474e+04   2.2900439e+04   2.2939405e+04   2.2977624e+04   2.3015843e+04   2.3053464e+04   2.3091086e+04   2.3127717e+04   2.3164349e+04   2.3200536e+04   2.3236724e+04   2.3271584e+04   2.3306444e+04   2.3323533e+04   2.3340619e+04   2.3357455e+04   2.3374064e+04   2.3390525e+04   2.3407335e+04   2.3424770e+04   2.3442827e+04   2.3461312e+04   2.3480033e+04   2.3498846e+04   2.3517691e+04   2.3536552e+04   2.3555322e+04   2.3573963e+04   2.3592508e+04   2.3611023e+04   2.3629888e+04   2.3649320e+04   2.3669550e+04   2.3690105e+04   2.3713226e+04   2.3740108e+04   2.3771009e+04   2.3804668e+04   2.3840002e+04   2.3876049e+04   2.3912855e+04   2.3950548e+04   2.3989951e+04   2.4031234e+04   2.4074193e+04   2.4118510e+04   2.4164796e+04   2.4213606e+04   2.4264122e+04   2.4315130e+04   2.4366618e+04   2.4418696e+04   2.4471969e+04   2.4526747e+04   2.4583325e+04   2.4641651e+04   2.4702010e+04   2.4764387e+04   2.4834352e+04   2.4918303e+04   2.5022004e+04   2.5146039e+04   2.5284048e+04   2.5447369e+04   2.5624951e+04   2.5816223e+04   2.6012926e+04   2.6221381e+04   2.6435770e+04   2.6671000e+04   2.6911799e+04   2.7167057e+04   2.7426812e+04   2.7702552e+04   2.7984937e+04   2.8281958e+04   2.8578396e+04   2.8879866e+04   2.9190366e+04   2.9522373e+04   2.9851873e+04   3.0179773e+04   3.0518418e+04   3.0864345e+04   3.1206236e+04   3.1557796e+04   3.1914335e+04   3.2264437e+04   3.2617449e+04   3.2987908e+04
8.8088604e+03   9.2097554e+03   9.5963702e+03   9.9664215e+03   1.0322508e+04   1.0669077e+04   1.1008021e+04   1.1338132e+04   1.1656453e+04   1.1960509e+04   1.2252496e+04   1.2542193e+04   1.2843587e+04   1.3167019e+04   1.3514612e+04   1.3882587e+04   1.4262765e+04   1.4641860e+04   1.5006638e+04   1.5351787e+04   1.5679613e+04   1.5993725e+04   1.6295614e+04   1.6585094e+04   1.6861926e+04   1.7127085e+04   1.7382573e+04   1.7631920e+04   1.7866626e+04   1.8091857e+04   1.8310075e+04   1.8521884e+04   1.8728682e+04   1.8929830e+04   1.9125773e+04   1.9318066e+04   1.9500538e+04   1.9662595e+04   1.9801861e+04   1.9923200e+04   2.0030803e+04   2.0128086e+04   2.0216071e+04   2.0296319e+04   2.0369134e+04   2.0435718e+04   2.0498069e+04   2.0558504e+04   2.0619421e+04   2.0664155e+04   2.0708890e+04   2.0750078e+04   2.0791266e+04   2.0827685e+04   2.0864104e+04   2.0897170e+04   2.0930236e+04   2.0964930e+04   2.0999623e+04   2.1036322e+04   2.1073019e+04   2.1111406e+04   2.1149792e+04   2.1189403e+04   2.1229014e+04   2.1273116e+04   2.1317220e+04   2.1365627e+04   2.1414034e+04   2.1464680e+04   2.1515327e+04   2.1567011e+04   2.1618695e+04   2.1670174e+04   2.1721654e+04   2.1772185e+04   2.1822716e+04   2.1873710e+04   2.1924704e+04   2.1977220e+04   2.2029734e+04   2.2090079e+04   2.2150424e+04   2.2216469e+04   2.2282515e+04   2.2354853e+04   2.2427192e+04   2.2474090e+04   2.2520988e+04   2.2565295e+04   2.2609602e+04   2.2652047e+04   2.2694492e+04   2.2735965e+04   2.2777437e+04   2.2818206e+04   2.2858974e+04   2.2898074e+04   2.2937174e+04   2.2975515e+04   2.3013857e+04   2.3051508e+04   2.3089158e+04   2.3126252e+04   2.3163346e+04   2.3199057e+04   2.3234768e+04   2.3269787e+04   2.3304808e+04   2.3321547e+04   2.3338226e+04   2.3354802e+04   2.3371275e+04   2.3387663e+04   2.3404399e+04   2.3421803e+04   2.3439857e+04   2.3458373e+04   2.3477103e+04   2.3495851e+04   2.3514532e+04   2.3533139e+04   2.3551683e+04   2.3570193e+04   2.3588759e+04   2.3607403e+04   2.3626345e+04   2.3645852e+04   2.3665842e+04   2.3686031e+04   2.3708903e+04   2.3736718e+04   2.3768541e+04   2.3802638e+04   2.3837619e+04   2.3872702e+04   2.3908457e+04   2.3945176e+04   2.3983716e+04   2.4024035e+04   2.4066097e+04   2.4109669e+04   2.4155512e+04   2.4203837e+04   2.4253786e+04   2.4304447e+04   2.4355790e+04   2.4407815e+04   2.4460969e+04   2.4515473e+04   2.4571704e+04   2.4629763e+04   2.4689964e+04   2.4752191e+04   2.4822388e+04   2.4907310e+04   2.5011500e+04   2.5133801e+04   2.5270644e+04   2.5429245e+04   2.5607045e+04   2.5798007e+04   2.5994879e+04   2.6203398e+04   2.6418686e+04   2.6654247e+04   2.6896045e+04   2.7152192e+04   2.7415391e+04   2.7694923e+04   2.7977494e+04   2.8276034e+04   2.8577305e+04   2.8875684e+04   2.9181831e+04   2.9514500e+04   2.9849153e+04   3.0180684e+04   3.0515616e+04   3.0856938e+04   3.1200619e+04   3.1555279e+04   3.1913691e+04   3.2262758e+04   3.2610537e+04   3.2979921e+04
8.8075459e+03   9.2206954e+03   9.6173588e+03   9.9953539e+03   1.0358222e+04   1.0711302e+04   1.1057852e+04   1.1398560e+04   1.1731722e+04   1.2053119e+04   1.2358398e+04   1.2649002e+04   1.2935940e+04   1.3235719e+04   1.3561011e+04   1.3913931e+04   1.4286632e+04   1.4664357e+04   1.5031223e+04   1.5378685e+04   1.5707290e+04   1.6020476e+04   1.6319777e+04   1.6605142e+04   1.6877185e+04   1.7137774e+04   1.7389726e+04   1.7638300e+04   1.7872223e+04   1.8097691e+04   1.8317391e+04   1.8531132e+04   1.8738116e+04   1.8937562e+04   1.9132055e+04   1.9324342e+04   1.9508072e+04   1.9671940e+04   1.9813093e+04   1.9935992e+04   2.0044568e+04   2.0142281e+04   2.0230164e+04   2.0309988e+04   2.0382251e+04   2.0448330e+04   2.0510354e+04   2.0570609e+04   2.0631372e+04   2.0676357e+04   2.0721342e+04   2.0762739e+04   2.0804136e+04   2.0840618e+04   2.0877100e+04   2.0910103e+04   2.0943107e+04   2.0977546e+04   2.1011986e+04   2.1048196e+04   2.1084406e+04   2.1122050e+04   2.1159694e+04   2.1198328e+04   2.1236962e+04   2.1280131e+04   2.1323299e+04   2.1371235e+04   2.1419170e+04   2.1469871e+04   2.1520571e+04   2.1572430e+04   2.1624289e+04   2.1675670e+04   2.1727052e+04   2.1777529e+04   2.1828006e+04   2.1879216e+04   2.1930427e+04   2.1986206e+04   2.2041985e+04   2.2103547e+04   2.2165110e+04   2.2227117e+04   2.2289124e+04   2.2354800e+04   2.2420477e+04   2.2467550e+04   2.2514624e+04   2.2558989e+04   2.2603354e+04   2.2645214e+04   2.2687075e+04   2.2728025e+04   2.2768974e+04   2.2809520e+04   2.2850066e+04   2.2889243e+04   2.2928421e+04   2.2966847e+04   2.3005272e+04   2.3042928e+04   2.3080585e+04   2.3117862e+04   2.3155139e+04   2.3193975e+04   2.3232811e+04   2.3267991e+04   2.3303171e+04   2.3320276e+04   2.3336612e+04   2.3352732e+04   2.3368876e+04   2.3385134e+04   2.3402060e+04   2.3419628e+04   2.3437683e+04   2.3456068e+04   2.3474565e+04   2.3493007e+04   2.3511348e+04   2.3529598e+04   2.3547851e+04   2.3566345e+04   2.3585156e+04   2.3604244e+04   2.3623857e+04   2.3643548e+04   2.3663236e+04   2.3682864e+04   2.3706380e+04   2.3734013e+04   2.3764726e+04   2.3797494e+04   2.3831167e+04   2.3865937e+04   2.3902064e+04   2.3939299e+04   2.3977973e+04   2.4018208e+04   2.4060015e+04   2.4103125e+04   2.4148388e+04   2.4195880e+04   2.4244924e+04   2.4295231e+04   2.4346788e+04   2.4399203e+04   2.4452727e+04   2.4507417e+04   2.4563785e+04   2.4621904e+04   2.4682148e+04   2.4744445e+04   2.4816289e+04   2.4903303e+04   2.5007543e+04   2.5128229e+04   2.5263060e+04   2.5412505e+04   2.5590313e+04   2.5780744e+04   2.5977592e+04   2.6186161e+04   2.6402309e+04   2.6637960e+04   2.6880447e+04   2.7137210e+04   2.7404782e+04   2.7688703e+04   2.7971677e+04   2.8273932e+04   2.8579667e+04   2.8872009e+04   2.9171263e+04   2.9502602e+04   2.9842592e+04   3.0178658e+04   3.0510098e+04   3.0846980e+04   3.1192416e+04   3.1550667e+04   3.1911066e+04   3.2257941e+04   3.2599383e+04   3.2966605e+04
8.8064328e+03   9.2288890e+03   9.6339014e+03   1.0020364e+04   1.0391754e+04   1.0752580e+04   1.1106221e+04   1.1454856e+04   1.1799003e+04   1.2136190e+04   1.2460797e+04   1.2767429e+04   1.3057219e+04   1.3341765e+04   1.3639858e+04   1.3966919e+04   1.4323421e+04   1.4694714e+04   1.5061330e+04   1.5410331e+04   1.5739299e+04   1.6051012e+04   1.6347490e+04   1.6629431e+04   1.6897963e+04   1.7154897e+04   1.7403495e+04   1.7650955e+04   1.7883426e+04   1.8108748e+04   1.8329408e+04   1.8544358e+04   1.8751436e+04   1.8949750e+04   1.9142830e+04   1.9334374e+04   1.9518204e+04   1.9682863e+04   1.9825272e+04   1.9949405e+04   2.0058846e+04   2.0157108e+04   2.0245174e+04   2.0324906e+04   2.0396858e+04   2.0462516e+04   2.0524170e+04   2.0584169e+04   2.0644773e+04   2.0690220e+04   2.0735667e+04   2.0777734e+04   2.0819801e+04   2.0856496e+04   2.0893190e+04   2.0926073e+04   2.0958955e+04   2.0993585e+04   2.1028214e+04   2.1065002e+04   2.1101789e+04   2.1139168e+04   2.1176547e+04   2.1213884e+04   2.1251222e+04   2.1293518e+04   2.1335813e+04   2.1383606e+04   2.1431399e+04   2.1482248e+04   2.1533097e+04   2.1585137e+04   2.1637176e+04   2.1688874e+04   2.1740574e+04   2.1791560e+04   2.1842548e+04   2.1895405e+04   2.1948263e+04   2.2005996e+04   2.2063729e+04   2.2124337e+04   2.2184946e+04   2.2244546e+04   2.2304146e+04   2.2364337e+04   2.2424527e+04   2.2471541e+04   2.2518556e+04   2.2563323e+04   2.2608090e+04   2.2650123e+04   2.2692156e+04   2.2733155e+04   2.2774154e+04   2.2814015e+04   2.2853876e+04   2.2893129e+04   2.2932382e+04   2.2970733e+04   2.3009084e+04   2.3046803e+04   2.3084521e+04   2.3121164e+04   2.3157807e+04   2.3194330e+04   2.3230854e+04   2.3266194e+04   2.3301536e+04   2.3317729e+04   2.3334683e+04   2.3352178e+04   2.3369993e+04   2.3387958e+04   2.3406178e+04   2.3424427e+04   2.3442665e+04   2.3460911e+04   2.3479049e+04   2.3497036e+04   2.3514893e+04   2.3532663e+04   2.3550808e+04   2.3569559e+04   2.3589194e+04   2.3609483e+04   2.3629744e+04   2.3649476e+04   2.3668861e+04   2.3688014e+04   2.3708959e+04   2.3732616e+04   2.3759364e+04   2.3789015e+04   2.3821699e+04   2.3857014e+04   2.3894223e+04   2.3932622e+04   2.3972402e+04   2.4013473e+04   2.4055740e+04   2.4099061e+04   2.4144339e+04   2.4191262e+04   2.4239879e+04   2.4290288e+04   2.4342218e+04   2.4395271e+04   2.4449543e+04   2.4504962e+04   2.4561934e+04   2.4620494e+04   2.4681111e+04   2.4743744e+04   2.4817269e+04   2.4905740e+04   2.5010489e+04   2.5131017e+04   2.5263600e+04   2.5404749e+04   2.5583108e+04   2.5771731e+04   2.5969063e+04   2.6177140e+04   2.6395878e+04   2.6630261e+04   2.6873903e+04   2.7130407e+04   2.7397163e+04   2.7679007e+04   2.7970969e+04   2.8280232e+04   2.8582428e+04   2.8876258e+04   2.9182050e+04   2.9508042e+04   2.9845824e+04   3.0183916e+04   3.0516792e+04   3.0853293e+04   3.1201165e+04   3.1559069e+04   3.1911490e+04   3.2255192e+04   3.2605359e+04   3.2972482e+04
8.8052746e+03   9.2340357e+03   9.6455365e+03   1.0040100e+04   1.0420683e+04   1.0790216e+04   1.1151267e+04   1.1506375e+04   1.1857440e+04   1.2204248e+04   1.2543329e+04   1.2868886e+04   1.3176124e+04   1.3466013e+04   1.3749873e+04   1.4048291e+04   1.4377883e+04   1.4734064e+04   1.5095771e+04   1.5444450e+04   1.5773174e+04   1.6083082e+04   1.6376725e+04   1.6655925e+04   1.6922364e+04   1.7177676e+04   1.7424737e+04   1.7671218e+04   1.7901454e+04   1.8125923e+04   1.8346404e+04   1.8560924e+04   1.8767265e+04   1.8964461e+04   1.9156170e+04   1.9346497e+04   1.9529338e+04   1.9693543e+04   1.9836195e+04   1.9960844e+04   2.0070844e+04   2.0169796e+04   2.0258667e+04   2.0339262e+04   2.0411907e+04   2.0477966e+04   2.0539790e+04   2.0599779e+04   2.0660214e+04   2.0705734e+04   2.0751253e+04   2.0793872e+04   2.0836490e+04   2.0873815e+04   2.0911141e+04   2.0944401e+04   2.0977662e+04   2.1013754e+04   2.1049846e+04   2.1089148e+04   2.1128450e+04   2.1166680e+04   2.1204910e+04   2.1241163e+04   2.1277416e+04   2.1318479e+04   2.1359541e+04   2.1406348e+04   2.1453155e+04   2.1503452e+04   2.1553749e+04   2.1605732e+04   2.1657714e+04   2.1709702e+04   2.1761690e+04   2.1813664e+04   2.1865639e+04   2.1920494e+04   2.1975349e+04   2.2033378e+04   2.2091405e+04   2.2148667e+04   2.2205929e+04   2.2261278e+04   2.2316627e+04   2.2372883e+04   2.2429138e+04   2.2474896e+04   2.2520653e+04   2.2564846e+04   2.2609039e+04   2.2651249e+04   2.2693459e+04   2.2734732e+04   2.2776005e+04   2.2815746e+04   2.2855488e+04   2.2894648e+04   2.2933809e+04   2.2971880e+04   2.3009950e+04   2.3047461e+04   2.3084973e+04   2.3118942e+04   2.3152910e+04   2.3183548e+04   2.3214186e+04   2.3245216e+04   2.3276246e+04   2.3295530e+04   2.3315153e+04   2.3334987e+04   2.3354870e+04   2.3374687e+04   2.3394289e+04   2.3413591e+04   2.3432637e+04   2.3451510e+04   2.3470217e+04   2.3488770e+04   2.3507213e+04   2.3525585e+04   2.3544283e+04   2.3563408e+04   2.3583501e+04   2.3604296e+04   2.3625404e+04   2.3646598e+04   2.3668809e+04   2.3692108e+04   2.3716399e+04   2.3741739e+04   2.3768618e+04   2.3797134e+04   2.3828030e+04   2.3861156e+04   2.3896850e+04   2.3934660e+04   2.3974491e+04   2.4015881e+04   2.4059052e+04   2.4103670e+04   2.4149190e+04   2.4195502e+04   2.4243343e+04   2.4292860e+04   2.4344328e+04   2.4397461e+04   2.4452247e+04   2.4508411e+04   2.4566258e+04   2.4625684e+04   2.4686993e+04   2.4750072e+04   2.4824755e+04   2.4914336e+04   2.5021383e+04   2.5142631e+04   2.5272750e+04   2.5403183e+04   2.5580453e+04   2.5766941e+04   2.5963853e+04   2.6171479e+04   2.6391243e+04   2.6624256e+04   2.6867875e+04   2.7123685e+04   2.7388237e+04   2.7666386e+04   2.7965205e+04   2.8279711e+04   2.8584963e+04   2.8891499e+04   2.9206129e+04   2.9527968e+04   2.9859482e+04   3.0195712e+04   3.0531414e+04   3.0869802e+04   3.1217641e+04   3.1572170e+04   3.1918684e+04   3.2262537e+04   3.2620051e+04   3.2986174e+04
8.8042646e+03   9.2369441e+03   9.6535521e+03   1.0055465e+04   1.0444851e+04   1.0823160e+04   1.1191960e+04   1.1553289e+04   1.1909247e+04   1.2260996e+04   1.2607388e+04   1.2944742e+04   1.3268352e+04   1.3574766e+04   1.3865256e+04   1.4151132e+04   1.4453476e+04   1.4785391e+04   1.5134839e+04   1.5479563e+04   1.5806792e+04   1.6114617e+04   1.6405450e+04   1.6682077e+04   1.6947130e+04   1.7203298e+04   1.7453188e+04   1.7700708e+04   1.7927804e+04   1.8149322e+04   1.8367529e+04   1.8579658e+04   1.8783613e+04   1.8979142e+04   1.9169612e+04   1.9358685e+04   1.9539893e+04   1.9702797e+04   1.9844884e+04   1.9969412e+04   2.0079640e+04   2.0179229e+04   2.0269255e+04   2.0351463e+04   2.0425849e+04   2.0493504e+04   2.0556617e+04   2.0617483e+04   2.0678240e+04   2.0724092e+04   2.0769944e+04   2.0813031e+04   2.0856120e+04   2.0893968e+04   2.0931816e+04   2.0965885e+04   2.0999953e+04   2.1037006e+04   2.1074059e+04   2.1114086e+04   2.1154112e+04   2.1192666e+04   2.1231219e+04   2.1267338e+04   2.1303457e+04   2.1344393e+04   2.1385329e+04   2.1431595e+04   2.1477862e+04   2.1527646e+04   2.1577428e+04   2.1629449e+04   2.1681471e+04   2.1734556e+04   2.1787640e+04   2.1841435e+04   2.1895228e+04   2.1950716e+04   2.2006204e+04   2.2062412e+04   2.2118621e+04   2.2171769e+04   2.2224917e+04   2.2274710e+04   2.2324504e+04   2.2371488e+04   2.2418470e+04   2.2462840e+04   2.2507211e+04   2.2550120e+04   2.2593028e+04   2.2635936e+04   2.2678845e+04   2.2719450e+04   2.2760056e+04   2.2800662e+04   2.2841267e+04   2.2880027e+04   2.2918787e+04   2.2957546e+04   2.2996306e+04   2.3033248e+04   2.3070191e+04   2.3107134e+04   2.3144076e+04   2.3170797e+04   2.3197517e+04   2.3224237e+04   2.3250957e+04   2.3273354e+04   2.3295654e+04   2.3317686e+04   2.3339379e+04   2.3360741e+04   2.3381534e+04   2.3401800e+04   2.3421641e+04   2.3441175e+04   2.3460484e+04   2.3479636e+04   2.3498687e+04   2.3517682e+04   2.3536709e+04   2.3555744e+04   2.3575568e+04   2.3596138e+04   2.3617617e+04   2.3639913e+04   2.3663638e+04   2.3688725e+04   2.3715315e+04   2.3743154e+04   2.3772406e+04   2.3802915e+04   2.3834906e+04   2.3868213e+04   2.3903573e+04   2.3940892e+04   2.3980296e+04   2.4021429e+04   2.4064284e+04   2.4108557e+04   2.4154168e+04   2.4200896e+04   2.4249100e+04   2.4298713e+04   2.4350230e+04   2.4403529e+04   2.4458818e+04   2.4515769e+04   2.4574613e+04   2.4635119e+04   2.4697500e+04   2.4761521e+04   2.4837380e+04   2.4928659e+04   2.5037855e+04   2.5161295e+04   2.5290875e+04   2.5410349e+04   2.5587770e+04   2.5772590e+04   2.5971430e+04   2.6179188e+04   2.6401616e+04   2.6633755e+04   2.6879373e+04   2.7134627e+04   2.7397070e+04   2.7668632e+04   2.7964162e+04   2.8274032e+04   2.8585842e+04   2.8901182e+04   2.9218402e+04   2.9539744e+04   2.9868240e+04   3.0202341e+04   3.0538753e+04   3.0878034e+04   3.1223453e+04   3.1573591e+04   3.1920903e+04   3.2268349e+04   3.2624417e+04   3.2985741e+04
8.8037628e+03   9.2389319e+03   9.6599206e+03   1.0068346e+04   1.0465461e+04   1.0851753e+04   1.1228078e+04   1.1595640e+04   1.1955941e+04   1.2310630e+04   1.2660261e+04   1.3003183e+04   1.3336054e+04   1.3655625e+04   1.3960110e+04   1.4251699e+04   1.4542180e+04   1.4850200e+04   1.5180342e+04   1.5515723e+04   1.5839082e+04   1.6144274e+04   1.6432302e+04   1.6706158e+04   1.6969483e+04   1.7227416e+04   1.7485629e+04   1.7741336e+04   1.7964243e+04   1.8176548e+04   1.8388125e+04   1.8596092e+04   1.8797128e+04   1.8991102e+04   1.9180801e+04   1.9368927e+04   1.9548394e+04   1.9709690e+04   1.9851007e+04   1.9975448e+04   2.0086097e+04   2.0186484e+04   2.0277813e+04   2.0361914e+04   2.0438768e+04   2.0509330e+04   2.0575728e+04   2.0640320e+04   2.0705396e+04   2.0752318e+04   2.0799239e+04   2.0842125e+04   2.0885011e+04   2.0923571e+04   2.0962131e+04   2.0998010e+04   2.1033890e+04   2.1070322e+04   2.1106756e+04   2.1144198e+04   2.1181640e+04   2.1218397e+04   2.1255154e+04   2.1290726e+04   2.1326299e+04   2.1367455e+04   2.1408610e+04   2.1454656e+04   2.1500701e+04   2.1550135e+04   2.1599567e+04   2.1651328e+04   2.1703088e+04   2.1756450e+04   2.1809813e+04   2.1864179e+04   2.1918545e+04   2.1973124e+04   2.2027703e+04   2.2081091e+04   2.2134480e+04   2.2184118e+04   2.2233754e+04   2.2280628e+04   2.2327500e+04   2.2371767e+04   2.2416035e+04   2.2459947e+04   2.2503861e+04   2.2546441e+04   2.2589021e+04   2.2631601e+04   2.2674181e+04   2.2714482e+04   2.2754783e+04   2.2795084e+04   2.2835385e+04   2.2873907e+04   2.2912429e+04   2.2950951e+04   2.2989472e+04   2.3026187e+04   2.3062901e+04   2.3099616e+04   2.3136331e+04   2.3162570e+04   2.3188809e+04   2.3215048e+04   2.3241288e+04   2.3263274e+04   2.3285085e+04   2.3306607e+04   2.3327821e+04   2.3348763e+04   2.3369288e+04   2.3389417e+04   2.3409218e+04   2.3428769e+04   2.3448115e+04   2.3467303e+04   2.3486380e+04   2.3505381e+04   2.3524293e+04   2.3543130e+04   2.3562825e+04   2.3583391e+04   2.3605073e+04   2.3627753e+04   2.3652130e+04   2.3678059e+04   2.3705660e+04   2.3734678e+04   2.3765251e+04   2.3797161e+04   2.3830323e+04   2.3864482e+04   2.3900464e+04   2.3938133e+04   2.3977688e+04   2.4018871e+04   2.4061730e+04   2.4105986e+04   2.4151899e+04   2.4199288e+04   2.4248344e+04   2.4298834e+04   2.4351205e+04   2.4405278e+04   2.4461342e+04   2.4519128e+04   2.4578953e+04   2.4640548e+04   2.4704116e+04   2.4769384e+04   2.4846826e+04   2.4939910e+04   2.5050112e+04   2.5176077e+04   2.5309990e+04   2.5435752e+04   2.5615574e+04   2.5801887e+04   2.6003209e+04   2.6213283e+04   2.6438127e+04   2.6671345e+04   2.6918533e+04   2.7174421e+04   2.7436115e+04   2.7703997e+04   2.7988981e+04   2.8285949e+04   2.8593878e+04   2.8907804e+04   2.9225846e+04   2.9548093e+04   2.9875484e+04   3.0208341e+04   3.0544922e+04   3.0884807e+04   3.1228748e+04   3.1576171e+04   3.1924654e+04   3.2275013e+04   3.2629814e+04   3.2987678e+04
8.8040319e+03   9.2414158e+03   9.6665251e+03   1.0080519e+04   1.0483934e+04   1.0876902e+04   1.1259904e+04   1.1633321e+04   1.1997781e+04   1.2354834e+04   1.2706113e+04   1.3051559e+04   1.3389003e+04   1.3715972e+04   1.4030970e+04   1.4333423e+04   1.4626621e+04   1.4922342e+04   1.5232898e+04   1.5553996e+04   1.5870120e+04   1.6171507e+04   1.6456639e+04   1.6727746e+04   1.6988930e+04   1.7247435e+04   1.7513972e+04   1.7795409e+04   1.8012830e+04   1.8204392e+04   1.8404139e+04   1.8606227e+04   1.8804449e+04   1.8997680e+04   1.9187357e+04   1.9375124e+04   1.9553106e+04   1.9712837e+04   1.9853460e+04   1.9978055e+04   2.0089394e+04   2.0190808e+04   2.0283498e+04   2.0369355e+04   2.0448585e+04   2.0522214e+04   2.0592426e+04   2.0661504e+04   2.0731473e+04   2.0781215e+04   2.0830957e+04   2.0874569e+04   2.0918182e+04   2.0957047e+04   2.0995911e+04   2.1032293e+04   2.1068675e+04   2.1104475e+04   2.1140276e+04   2.1175798e+04   2.1211321e+04   2.1246404e+04   2.1281488e+04   2.1316160e+04   2.1350834e+04   2.1391552e+04   2.1432270e+04   2.1477306e+04   2.1522341e+04   2.1570461e+04   2.1618581e+04   2.1669027e+04   2.1719473e+04   2.1771480e+04   2.1823487e+04   2.1876656e+04   2.1929824e+04   2.1982226e+04   2.2034628e+04   2.2085231e+04   2.2135834e+04   2.2183358e+04   2.2230882e+04   2.2276889e+04   2.2322895e+04   2.2368246e+04   2.2413599e+04   2.2457055e+04   2.2500510e+04   2.2542762e+04   2.2585013e+04   2.2627266e+04   2.2669518e+04   2.2709514e+04   2.2749511e+04   2.2789507e+04   2.2829503e+04   2.2867787e+04   2.2906072e+04   2.2944356e+04   2.2982640e+04   2.3019127e+04   2.3055613e+04   2.3092099e+04   2.3128585e+04   2.3154343e+04   2.3180101e+04   2.3205859e+04   2.3231618e+04   2.3253180e+04   2.3274526e+04   2.3295599e+04   2.3316406e+04   2.3336990e+04   2.3357240e+04   2.3377179e+04   2.3396860e+04   2.3416344e+04   2.3435640e+04   2.3454780e+04   2.3473803e+04   2.3492739e+04   2.3511596e+04   2.3530376e+04   2.3550102e+04   2.3570763e+04   2.3592614e+04   2.3615526e+04   2.3640194e+04   2.3666448e+04   2.3694406e+04   2.3723814e+04   2.3754631e+04   2.3786642e+04   2.3819701e+04   2.3853571e+04   2.3889248e+04   2.3926574e+04   2.3965779e+04   2.4006619e+04   2.4049336e+04   2.4093653e+04   2.4139768e+04   2.4187460e+04   2.4236834e+04   2.4287630e+04   2.4340311e+04   2.4394648e+04   2.4450939e+04   2.4508920e+04   2.4569007e+04   2.4630937e+04   2.4694968e+04   2.4760809e+04   2.4839684e+04   2.4934132e+04   2.5045220e+04   2.5171660e+04   2.5306972e+04   2.5439810e+04   2.5621065e+04   2.5808725e+04   2.6011053e+04   2.6222764e+04   2.6448262e+04   2.6682383e+04   2.6929765e+04   2.7186305e+04   2.7449958e+04   2.7719945e+04   2.8002132e+04   2.8294337e+04   2.8597961e+04   2.8909021e+04   2.9226553e+04   2.9549049e+04   2.9876581e+04   3.0209225e+04   3.0546115e+04   3.0886681e+04   3.1230657e+04   3.1577705e+04   3.1926985e+04   3.2278772e+04   3.2633595e+04   3.2990783e+04
8.8052327e+03   9.2456225e+03   9.6747476e+03   1.0093208e+04   1.0501407e+04   1.0899573e+04   1.1287994e+04   1.1666402e+04   1.2034656e+04   1.2393949e+04   1.2746414e+04   1.3093116e+04   1.3432937e+04   1.3763983e+04   1.4085173e+04   1.4395892e+04   1.4696214e+04   1.4990585e+04   1.5288665e+04   1.5594661e+04   1.5900540e+04   1.6196366e+04   1.6478219e+04   1.6746919e+04   1.7006206e+04   1.7263221e+04   1.7527399e+04   1.7800289e+04   1.8016270e+04   1.8213789e+04   1.8410951e+04   1.8608948e+04   1.8804902e+04   1.8997621e+04   1.9187483e+04   1.9375244e+04   1.9552166e+04   1.9710728e+04   1.9850765e+04   1.9975375e+04   2.0087368e+04   2.0190012e+04   2.0284316e+04   2.0372181e+04   2.0453782e+04   2.0530267e+04   2.0603948e+04   2.0676953e+04   2.0750608e+04   2.0803245e+04   2.0855881e+04   2.0900868e+04   2.0945855e+04   2.0984934e+04   2.1024013e+04   2.1059990e+04   2.1095966e+04   2.1130229e+04   2.1164493e+04   2.1197629e+04   2.1230766e+04   2.1263644e+04   2.1296523e+04   2.1328971e+04   2.1361417e+04   2.1399441e+04   2.1437465e+04   2.1479829e+04   2.1522194e+04   2.1568257e+04   2.1614320e+04   2.1663132e+04   2.1711943e+04   2.1762394e+04   2.1812844e+04   2.1864577e+04   2.1916310e+04   2.1967155e+04   2.2018001e+04   2.2067291e+04   2.2116581e+04   2.2163472e+04   2.2210364e+04   2.2255899e+04   2.2301434e+04   2.2345975e+04   2.2390516e+04   2.2434093e+04   2.2477671e+04   2.2519850e+04   2.2562029e+04   2.2604208e+04   2.2646386e+04   2.2686257e+04   2.2726129e+04   2.2766000e+04   2.2805870e+04   2.2844035e+04   2.2882200e+04   2.2920365e+04   2.2958531e+04   2.2994920e+04   2.3031307e+04   2.3067694e+04   2.3104082e+04   2.3129823e+04   2.3155565e+04   2.3181307e+04   2.3207048e+04   2.3228687e+04   2.3250086e+04   2.3271190e+04   2.3292013e+04   2.3312606e+04   2.3332869e+04   2.3352831e+04   2.3372542e+04   2.3392060e+04   2.3411398e+04   2.3430584e+04   2.3449653e+04   2.3468637e+04   2.3487529e+04   2.3506345e+04   2.3526151e+04   2.3546934e+04   2.3568958e+04   2.3592084e+04   2.3617007e+04   2.3643541e+04   2.3671796e+04   2.3701503e+04   2.3732533e+04   2.3764656e+04   2.3797720e+04   2.3831508e+04   2.3867081e+04   2.3904299e+04   2.3943415e+04   2.3984176e+04   2.4026892e+04   2.4071282e+04   2.4117562e+04   2.4165459e+04   2.4215007e+04   2.4265925e+04   2.4318682e+04   2.4373036e+04   2.4429300e+04   2.4487203e+04   2.4547234e+04   2.4609137e+04   2.4673219e+04   2.4739191e+04   2.4818943e+04   2.4914168e+04   2.5026248e+04   2.5152376e+04   2.5286267e+04   2.5419907e+04   2.5601983e+04   2.5790416e+04   2.5993505e+04   2.6205960e+04   2.6432120e+04   2.6667005e+04   2.6915000e+04   2.7172228e+04   2.7439476e+04   2.7713940e+04   2.7999103e+04   2.8293006e+04   2.8596281e+04   2.8906760e+04   2.9224012e+04   2.9546807e+04   2.9874807e+04   3.0207716e+04   3.0545018e+04   3.0886188e+04   3.1230602e+04   3.1577965e+04   3.1927911e+04   3.2280540e+04   3.2635736e+04   3.2993098e+04
8.8076579e+03   9.2523591e+03   9.6852641e+03   1.0107058e+04   1.0518679e+04   1.0920632e+04   1.1313066e+04   1.1695307e+04   1.2066748e+04   1.2428198e+04   1.2781814e+04   1.3129303e+04   1.3470516e+04   1.3804087e+04   1.4128933e+04   1.4444621e+04   1.4750709e+04   1.5047985e+04   1.5341157e+04   1.5635736e+04   1.5930571e+04   1.6219199e+04   1.6496996e+04   1.6763436e+04   1.7021356e+04   1.7276215e+04   1.7533489e+04   1.7793542e+04   1.8008309e+04   1.8211079e+04   1.8409868e+04   1.8606140e+04   1.8800003e+04   1.8991300e+04   1.9180496e+04   1.9367910e+04   1.9544232e+04   1.9702248e+04   1.9841820e+04   1.9965933e+04   2.0077853e+04   2.0180956e+04   2.0276080e+04   2.0365274e+04   2.0448472e+04   2.0526881e+04   2.0603014e+04   2.0678902e+04   2.0755420e+04   2.0810061e+04   2.0864703e+04   2.0910870e+04   2.0957038e+04   2.0997299e+04   2.1037559e+04   2.1074722e+04   2.1111885e+04   2.1145986e+04   2.1180088e+04   2.1211667e+04   2.1243246e+04   2.1273917e+04   2.1304587e+04   2.1334386e+04   2.1364185e+04   2.1399051e+04   2.1433918e+04   2.1473128e+04   2.1512337e+04   2.1556209e+04   2.1600081e+04   2.1647459e+04   2.1694836e+04   2.1744421e+04   2.1794006e+04   2.1845041e+04   2.1896078e+04   2.1946214e+04   2.1996349e+04   2.2045184e+04   2.2094021e+04   2.2140752e+04   2.2187483e+04   2.2232940e+04   2.2278398e+04   2.2322915e+04   2.2367431e+04   2.2411132e+04   2.2454833e+04   2.2496939e+04   2.2539044e+04   2.2581150e+04   2.2623255e+04   2.2663001e+04   2.2702746e+04   2.2742492e+04   2.2782238e+04   2.2820283e+04   2.2858330e+04   2.2896376e+04   2.2934422e+04   2.2970712e+04   2.3007001e+04   2.3043290e+04   2.3079579e+04   2.3105304e+04   2.3131029e+04   2.3156753e+04   2.3182478e+04   2.3204133e+04   2.3225532e+04   2.3246637e+04   2.3267467e+04   2.3288073e+04   2.3308358e+04   2.3328349e+04   2.3348096e+04   2.3367658e+04   2.3387038e+04   2.3406270e+04   2.3425385e+04   2.3444416e+04   2.3463359e+04   2.3482228e+04   2.3502077e+04   2.3522913e+04   2.3545005e+04   2.3568216e+04   2.3593235e+04   2.3619880e+04   2.3648250e+04   2.3678078e+04   2.3709187e+04   2.3741329e+04   2.3774346e+04   2.3808037e+04   2.3843497e+04   2.3880612e+04   2.3919649e+04   2.3960352e+04   2.4003076e+04   2.4047538e+04   2.4093915e+04   2.4141915e+04   2.4191535e+04   2.4242483e+04   2.4295225e+04   2.4349532e+04   2.4405724e+04   2.4463540e+04   2.4523485e+04   2.4585318e+04   2.4649372e+04   2.4715364e+04   2.4795336e+04   2.4890903e+04   2.5003525e+04   2.5130063e+04   2.5264429e+04   2.5400766e+04   2.5583996e+04   2.5773645e+04   2.5977920e+04   2.6191642e+04   2.6418940e+04   2.6655094e+04   2.6904204e+04   2.7162609e+04   2.7431571e+04   2.7708145e+04   2.7994906e+04   2.8289980e+04   2.8593668e+04   2.8904285e+04   2.9221824e+04   2.9545209e+04   2.9873916e+04   3.0207417e+04   3.0545301e+04   3.0887126e+04   3.1232153e+04   3.1580102e+04   3.1930727e+04   3.2284056e+04   3.2639764e+04   3.2997597e+04
8.8120869e+03   9.2619549e+03   9.6981259e+03   1.0122322e+04   1.0536331e+04   1.0940865e+04   1.1335970e+04   1.1720850e+04   1.2094767e+04   1.2458214e+04   1.2813074e+04   1.3161279e+04   1.3503458e+04   1.3838776e+04   1.4165994e+04   1.4484554e+04   1.4794125e+04   1.5094288e+04   1.5386462e+04   1.5674303e+04   1.5959726e+04   1.6240498e+04   1.6513306e+04   1.6777086e+04   1.7033694e+04   1.7286458e+04   1.7537037e+04   1.7783182e+04   1.7996753e+04   1.8201717e+04   1.8402813e+04   1.8598940e+04   1.8790843e+04   1.8979765e+04   1.9167180e+04   1.9353566e+04   1.9529284e+04   1.9686649e+04   1.9824989e+04   1.9947096e+04   2.0056753e+04   2.0157613e+04   2.0250650e+04   2.0338138e+04   2.0419797e+04   2.0496881e+04   2.0571758e+04   2.0645583e+04   2.0718272e+04   2.0771633e+04   2.0824994e+04   2.0869215e+04   2.0913434e+04   2.0953005e+04   2.0992577e+04   2.1029464e+04   2.1066353e+04   2.1100875e+04   2.1135398e+04   2.1168185e+04   2.1200972e+04   2.1234353e+04   2.1267734e+04   2.1301627e+04   2.1335521e+04   2.1373070e+04   2.1410620e+04   2.1451202e+04   2.1491783e+04   2.1536577e+04   2.1581370e+04   2.1629579e+04   2.1677788e+04   2.1727313e+04   2.1776837e+04   2.1826651e+04   2.1876466e+04   2.1925513e+04   2.1974560e+04   2.2022867e+04   2.2071173e+04   2.2117700e+04   2.2164227e+04   2.2209934e+04   2.2255642e+04   2.2299097e+04   2.2342552e+04   2.2386405e+04   2.2430258e+04   2.2472580e+04   2.2514902e+04   2.2557224e+04   2.2599547e+04   2.2640689e+04   2.2681831e+04   2.2722973e+04   2.2764115e+04   2.2800915e+04   2.2837717e+04   2.2874518e+04   2.2911319e+04   2.2947532e+04   2.2983746e+04   2.3019959e+04   2.3056174e+04   2.3081879e+04   2.3107583e+04   2.3133287e+04   2.3158993e+04   2.3180618e+04   2.3201999e+04   2.3223095e+04   2.3243923e+04   2.3264532e+04   2.3284823e+04   2.3304824e+04   2.3324582e+04   2.3344153e+04   2.3363544e+04   2.3382784e+04   2.3401910e+04   2.3420949e+04   2.3439899e+04   2.3458775e+04   2.3478621e+04   2.3499463e+04   2.3521575e+04   2.3544825e+04   2.3569905e+04   2.3596632e+04   2.3625104e+04   2.3655048e+04   2.3686223e+04   2.3718382e+04   2.3751359e+04   2.3784966e+04   2.3820340e+04   2.3857379e+04   2.3896348e+04   2.3936985e+04   2.3979700e+04   2.4024205e+04   2.4070638e+04   2.4118682e+04   2.4168309e+04   2.4219229e+04   2.4271929e+04   2.4326192e+04   2.4382346e+04   2.4440135e+04   2.4500082e+04   2.4561945e+04   2.4626058e+04   2.4692137e+04   2.4772355e+04   2.4868139e+04   2.4981404e+04   2.5108390e+04   2.5243209e+04   2.5380073e+04   2.5564333e+04   2.5755078e+04   2.5960520e+04   2.6175501e+04   2.6404003e+04   2.6641450e+04   2.6891769e+04   2.7151435e+04   2.7421675e+04   2.7699634e+04   2.7987578e+04   2.8283726e+04   2.8588169e+04   2.8899374e+04   2.9217503e+04   2.9541619e+04   2.9871105e+04   3.0205318e+04   3.0543870e+04   3.0886380e+04   3.1232080e+04   3.1580705e+04   3.1932015e+04   3.2286002e+04   3.2642277e+04   3.3000665e+04
8.8195685e+03   9.2739050e+03   9.7126187e+03   1.0138823e+04   1.0554690e+04   1.0960905e+04   1.1357606e+04   1.1744129e+04   1.2119840e+04   1.2485021e+04   1.2841179e+04   1.3190201e+04   1.3533207e+04   1.3869838e+04   1.4198770e+04   1.4519147e+04   1.4830589e+04   1.5132404e+04   1.5424555e+04   1.5708759e+04   1.5987256e+04   1.6260593e+04   1.6527703e+04   1.6788045e+04   1.7042741e+04   1.7293228e+04   1.7538794e+04   1.7776537e+04   1.7989244e+04   1.8191473e+04   1.8392312e+04   1.8587829e+04   1.8777846e+04   1.8964379e+04   1.9149675e+04   1.9334510e+04   1.9508590e+04   1.9663682e+04   1.9798492e+04   1.9915976e+04   2.0020379e+04   2.0115772e+04   2.0203618e+04   2.0286139e+04   2.0363473e+04   2.0436995e+04   2.0508658e+04   2.0579076e+04   2.0648333e+04   2.0703024e+04   2.0757716e+04   2.0802792e+04   2.0847868e+04   2.0888497e+04   2.0929126e+04   2.0966735e+04   2.1004345e+04   2.1040409e+04   2.1076474e+04   2.1111813e+04   2.1147153e+04   2.1184625e+04   2.1222097e+04   2.1261198e+04   2.1300298e+04   2.1340927e+04   2.1381557e+04   2.1423362e+04   2.1465166e+04   2.1510910e+04   2.1556654e+04   2.1605917e+04   2.1655182e+04   2.1704447e+04   2.1753713e+04   2.1801909e+04   2.1850105e+04   2.1897952e+04   2.1945800e+04   2.1993627e+04   2.2041454e+04   2.2088032e+04   2.2134611e+04   2.2180891e+04   2.2227171e+04   2.2272421e+04   2.2317672e+04   2.2361677e+04   2.2405683e+04   2.2448222e+04   2.2490761e+04   2.2533300e+04   2.2575838e+04   2.2618377e+04   2.2660915e+04   2.2703454e+04   2.2745992e+04   2.2781547e+04   2.2817104e+04   2.2852660e+04   2.2888216e+04   2.2924354e+04   2.2960493e+04   2.2996630e+04   2.3032768e+04   2.3058453e+04   2.3084138e+04   2.3109823e+04   2.3135508e+04   2.3157130e+04   2.3178508e+04   2.3199604e+04   2.3220434e+04   2.3241048e+04   2.3261345e+04   2.3281352e+04   2.3301117e+04   2.3320695e+04   2.3340092e+04   2.3359339e+04   2.3378471e+04   2.3397517e+04   2.3416473e+04   2.3435353e+04   2.3455207e+04   2.3476073e+04   2.3498230e+04   2.3521549e+04   2.3546720e+04   2.3573559e+04   2.3602158e+04   2.3632239e+04   2.3663550e+04   2.3695841e+04   2.3728937e+04   2.3762651e+04   2.3798118e+04   2.3835231e+04   2.3874245e+04   2.3914907e+04   2.3957625e+04   2.4002102e+04   2.4048484e+04   2.4096476e+04   2.4146070e+04   2.4196982e+04   2.4249720e+04   2.4304065e+04   2.4360332e+04   2.4418267e+04   2.4478384e+04   2.4540438e+04   2.4604747e+04   2.4671024e+04   2.4751470e+04   2.4847612e+04   2.4961408e+04   2.5089078e+04   2.5224654e+04   2.5361055e+04   2.5546128e+04   2.5737583e+04   2.5944041e+04   2.6159759e+04   2.6389151e+04   2.6627343e+04   2.6878605e+04   2.7139009e+04   2.7410102e+04   2.7688826e+04   2.7977619e+04   2.8274383e+04   2.8579480e+04   2.8891176e+04   2.9209913e+04   2.9534577e+04   2.9864754e+04   3.0199578e+04   3.0538796e+04   3.0881891e+04   3.1228275e+04   3.1577548e+04   3.1929564e+04   3.2284173e+04   3.2641092e+04   3.3000082e+04
8.8336022e+03   9.2892354e+03   9.7287634e+03   1.0156451e+04   1.0573535e+04   1.0980882e+04   1.1378634e+04   1.1766208e+04   1.2143271e+04   1.2509939e+04   1.2867445e+04   1.3217459e+04   1.3561373e+04   1.3899177e+04   1.4229662e+04   1.4551619e+04   1.4864201e+04   1.5166693e+04   1.5458838e+04   1.5741156e+04   1.6015092e+04   1.6282203e+04   1.6543345e+04   1.6799084e+04   1.7050120e+04   1.7296465e+04   1.7536441e+04   1.7768243e+04   1.7980246e+04   1.8180094e+04   1.8379182e+04   1.8573288e+04   1.8761859e+04   1.8946882e+04   1.9130451e+04   1.9313238e+04   1.9483970e+04   1.9634464e+04   1.9763616e+04   1.9875157e+04   1.9973659e+04   2.0063356e+04   2.0146371e+04   2.0224692e+04   2.0299123e+04   2.0370883e+04   2.0440939e+04   2.0509871e+04   2.0578242e+04   2.0634313e+04   2.0690385e+04   2.0737968e+04   2.0785551e+04   2.0828284e+04   2.0871017e+04   2.0911179e+04   2.0951340e+04   2.0990482e+04   2.1029624e+04   2.1068402e+04   2.1107178e+04   2.1146948e+04   2.1186718e+04   2.1227529e+04   2.1268341e+04   2.1310110e+04   2.1351879e+04   2.1394382e+04   2.1436886e+04   2.1483322e+04   2.1529759e+04   2.1579272e+04   2.1628785e+04   2.1677944e+04   2.1727103e+04   2.1775375e+04   2.1823645e+04   2.1871538e+04   2.1919430e+04   2.1967178e+04   2.2014926e+04   2.2061781e+04   2.2108636e+04   2.2155030e+04   2.2201425e+04   2.2249315e+04   2.2297206e+04   2.2341190e+04   2.2385173e+04   2.2427486e+04   2.2469799e+04   2.2512112e+04   2.2554425e+04   2.2595477e+04   2.2636528e+04   2.2677579e+04   2.2718630e+04   2.2755300e+04   2.2791970e+04   2.2828641e+04   2.2865311e+04   2.2901391e+04   2.2937469e+04   2.2973549e+04   2.3009628e+04   2.3035280e+04   2.3060931e+04   2.3086582e+04   2.3112234e+04   2.3133825e+04   2.3155176e+04   2.3176247e+04   2.3197057e+04   2.3217652e+04   2.3237931e+04   2.3257922e+04   2.3277672e+04   2.3297236e+04   2.3316620e+04   2.3335856e+04   2.3354978e+04   2.3374014e+04   2.3392960e+04   2.3411831e+04   2.3431697e+04   2.3452595e+04   2.3474811e+04   2.3498210e+04   2.3523477e+04   2.3550427e+04   2.3579148e+04   2.3609360e+04   2.3640796e+04   2.3673199e+04   2.3706384e+04   2.3740158e+04   2.3775656e+04   2.3812779e+04   2.3851793e+04   2.3892453e+04   2.3935125e+04   2.3979529e+04   2.4025855e+04   2.4073811e+04   2.4123405e+04   2.4174349e+04   2.4227154e+04   2.4281590e+04   2.4337984e+04   2.4396068e+04   2.4456356e+04   2.4518595e+04   2.4583099e+04   2.4649571e+04   2.4730294e+04   2.4826829e+04   2.4940939e+04   2.5069073e+04   2.5205006e+04   2.5341039e+04   2.5526651e+04   2.5718576e+04   2.5925743e+04   2.6142051e+04   2.6372103e+04   2.6610825e+04   2.6862771e+04   2.7123722e+04   2.7395431e+04   2.7674676e+04   2.7964116e+04   2.8261381e+04   2.8567075e+04   2.8879263e+04   2.9198633e+04   2.9523858e+04   2.9854739e+04   3.0190213e+04   3.0530167e+04   3.0873928e+04   3.1221088e+04   3.1571111e+04   3.1923947e+04   3.2279308e+04   3.2637017e+04   3.2996756e+04
8.8483737e+03   9.3048711e+03   9.7453052e+03   1.0173563e+04   1.0591133e+04   1.0999235e+04   1.1397518e+04   1.1785732e+04   1.2163624e+04   1.2531496e+04   1.2890217e+04   1.3241333e+04   1.3586172e+04   1.3925013e+04   1.4256737e+04   1.4579901e+04   1.4893159e+04   1.5195932e+04   1.5488166e+04   1.5769858e+04   1.6041535e+04   1.6304482e+04   1.6560354e+04   1.6810583e+04   1.7055937e+04   1.7295809e+04   1.7528874e+04   1.7755335e+04   1.7966527e+04   1.8166278e+04   1.8363995e+04   1.8556778e+04   1.8744638e+04   1.8929093e+04   1.9111429e+04   1.9291673e+04   1.9457892e+04   1.9602851e+04   1.9726760e+04   1.9834090e+04   1.9929314e+04   2.0016278e+04   2.0096970e+04   2.0173229e+04   2.0245867e+04   2.0315817e+04   2.0383752e+04   2.0450173e+04   2.0515771e+04   2.0570374e+04   2.0624977e+04   2.0673792e+04   2.0722607e+04   2.0767643e+04   2.0812679e+04   2.0855906e+04   2.0899134e+04   2.0941741e+04   2.0984347e+04   2.1026743e+04   2.1069139e+04   2.1111657e+04   2.1154174e+04   2.1197079e+04   2.1239984e+04   2.1283708e+04   2.1327431e+04   2.1372059e+04   2.1416688e+04   2.1464222e+04   2.1511754e+04   2.1561037e+04   2.1610320e+04   2.1659425e+04   2.1708530e+04   2.1757368e+04   2.1806205e+04   2.1854442e+04   2.1902679e+04   2.1950404e+04   2.1998128e+04   2.2044815e+04   2.2091500e+04   2.2137589e+04   2.2183678e+04   2.2230209e+04   2.2276739e+04   2.2320701e+04   2.2364663e+04   2.2406751e+04   2.2448838e+04   2.2490925e+04   2.2533012e+04   2.2572576e+04   2.2612141e+04   2.2651705e+04   2.2691269e+04   2.2729053e+04   2.2766837e+04   2.2804621e+04   2.2842405e+04   2.2878425e+04   2.2914446e+04   2.2950467e+04   2.2986488e+04   2.3012106e+04   2.3037724e+04   2.3063341e+04   2.3088959e+04   2.3110524e+04   2.3131848e+04   2.3152895e+04   2.3173683e+04   2.3194259e+04   2.3214520e+04   2.3234495e+04   2.3254229e+04   2.3273780e+04   2.3293150e+04   2.3312375e+04   2.3331485e+04   2.3350512e+04   2.3369448e+04   2.3388311e+04   2.3408177e+04   2.3429086e+04   2.3451326e+04   2.3474761e+04   2.3500077e+04   2.3527085e+04   2.3555872e+04   2.3586155e+04   2.3617640e+04   2.3650064e+04   2.3683229e+04   2.3716948e+04   2.3752372e+04   2.3789411e+04   2.3828341e+04   2.3868920e+04   2.3911541e+04   2.3955925e+04   2.4002239e+04   2.4050186e+04   2.4099760e+04   2.4150668e+04   2.4203433e+04   2.4257827e+04   2.4314187e+04   2.4372247e+04   2.4432539e+04   2.4494802e+04   2.4559354e+04   2.4625890e+04   2.4706872e+04   2.4803671e+04   2.4918027e+04   2.5046156e+04   2.5181570e+04   2.5317012e+04   2.5502798e+04   2.5694902e+04   2.5902389e+04   2.6119024e+04   2.6349456e+04   2.6588541e+04   2.6840931e+04   2.7102315e+04   2.7374494e+04   2.7654203e+04   2.7944194e+04   2.8241996e+04   2.8548286e+04   2.8861062e+04   2.9181095e+04   2.9506979e+04   2.9838585e+04   3.0174782e+04   3.0515513e+04   3.0860036e+04   3.1208009e+04   3.1558850e+04   3.1912539e+04   3.2268729e+04   3.2627275e+04   3.2987832e+04
8.8622068e+03   9.3191618e+03   9.7601717e+03   1.0188632e+04   1.0606443e+04   1.1014804e+04   1.1413308e+04   1.1801684e+04   1.2179891e+04   1.2548400e+04   1.2907995e+04   1.3259951e+04   1.3605433e+04   1.3944653e+04   1.4276822e+04   1.4600262e+04   1.4913393e+04   1.5215849e+04   1.5507730e+04   1.5788963e+04   1.6059562e+04   1.6320232e+04   1.6572449e+04   1.6817914e+04   1.7057568e+04   1.7291039e+04   1.7518524e+04   1.7741185e+04   1.7951623e+04   1.8151611e+04   1.8348434e+04   1.8540490e+04   1.8728279e+04   1.8912679e+04   1.9094048e+04   1.9271613e+04   1.9433536e+04   1.9573878e+04   1.9694053e+04   1.9798729e+04   1.9891981e+04   1.9977174e+04   2.0056014e+04   2.0130140e+04   2.0200241e+04   2.0267125e+04   2.0331591e+04   2.0394407e+04   2.0456462e+04   2.0509407e+04   2.0562354e+04   2.0611629e+04   2.0660904e+04   2.0708122e+04   2.0755342e+04   2.0801505e+04   2.0847669e+04   2.0893293e+04   2.0938918e+04   2.0984384e+04   2.1029849e+04   2.1075348e+04   2.1120848e+04   2.1166508e+04   2.1212168e+04   2.1258832e+04   2.1305497e+04   2.1352991e+04   2.1400485e+04   2.1448892e+04   2.1497299e+04   2.1546212e+04   2.1595125e+04   2.1643709e+04   2.1692293e+04   2.1740642e+04   2.1788991e+04   2.1836719e+04   2.1884447e+04   2.1931610e+04   2.1978773e+04   2.2025103e+04   2.2071432e+04   2.2117369e+04   2.2163306e+04   2.2208636e+04   2.2253966e+04   2.2298666e+04   2.2343366e+04   2.2385315e+04   2.2427263e+04   2.2469212e+04   2.2511160e+04   2.2550617e+04   2.2590074e+04   2.2629531e+04   2.2668988e+04   2.2706682e+04   2.2744375e+04   2.2782069e+04   2.2819762e+04   2.2855707e+04   2.2891651e+04   2.2927596e+04   2.2963541e+04   2.2989113e+04   2.3014685e+04   2.3040258e+04   2.3065829e+04   2.3087355e+04   2.3108643e+04   2.3129657e+04   2.3150416e+04   2.3170963e+04   2.3191199e+04   2.3211150e+04   2.3230864e+04   2.3250394e+04   2.3269746e+04   2.3288953e+04   2.3308048e+04   2.3327060e+04   2.3345983e+04   2.3364834e+04   2.3384690e+04   2.3405592e+04   2.3427829e+04   2.3451264e+04   2.3476580e+04   2.3503591e+04   2.3532381e+04   2.3562670e+04   2.3594152e+04   2.3626560e+04   2.3659699e+04   2.3693384e+04   2.3728770e+04   2.3765773e+04   2.3804669e+04   2.3845215e+04   2.3887816e+04   2.3932194e+04   2.3978508e+04   2.4026453e+04   2.4076010e+04   2.4126884e+04   2.4179603e+04   2.4233942e+04   2.4290246e+04   2.4348252e+04   2.4408499e+04   2.4470731e+04   2.4535268e+04   2.4601806e+04   2.4682904e+04   2.4779821e+04   2.4894390e+04   2.5022426e+04   2.5157340e+04   2.5292371e+04   2.5478143e+04   2.5670261e+04   2.5877846e+04   2.6094614e+04   2.6325252e+04   2.6564575e+04   2.6817255e+04   2.7078950e+04   2.7351506e+04   2.7631629e+04   2.7922108e+04   2.8220426e+04   2.8527304e+04   2.8840702e+04   2.9161401e+04   2.9487967e+04   2.9820297e+04   3.0157239e+04   3.0498743e+04   3.0844048e+04   3.1192830e+04   3.1544498e+04   3.1899025e+04   3.2256046e+04   3.2615413e+04   3.2976783e+04
8.8749382e+03   9.3316426e+03   9.7728265e+03   1.0201354e+04   1.0619204e+04   1.1027481e+04   1.1425980e+04   1.1814225e+04   1.2192342e+04   1.2560991e+04   1.2921034e+04   1.3273459e+04   1.3619152e+04   1.3958268e+04   1.4290141e+04   1.4612905e+04   1.4925165e+04   1.5226798e+04   1.5517906e+04   1.5798389e+04   1.6068074e+04   1.6327306e+04   1.6577219e+04   1.6819373e+04   1.7054896e+04   1.7284088e+04   1.7508058e+04   1.7728816e+04   1.7938355e+04   1.8138129e+04   1.8334324e+04   1.8526170e+04   1.8714170e+04   1.8898570e+04   1.9079034e+04   1.9254308e+04   1.9413021e+04   1.9550213e+04   1.9667778e+04   1.9770200e+04   1.9861170e+04   1.9943836e+04   2.0019888e+04   2.0090949e+04   2.0157755e+04   2.0221229e+04   2.0282285e+04   2.0341812e+04   2.0400771e+04   2.0453019e+04   2.0505267e+04   2.0555263e+04   2.0605258e+04   2.0654215e+04   2.0703173e+04   2.0751623e+04   2.0800073e+04   2.0848164e+04   2.0896256e+04   2.0944307e+04   2.0992357e+04   2.1040313e+04   2.1088271e+04   2.1136273e+04   2.1184276e+04   2.1233134e+04   2.1281993e+04   2.1331404e+04   2.1380815e+04   2.1429908e+04   2.1479001e+04   2.1527792e+04   2.1576583e+04   2.1624821e+04   2.1673059e+04   2.1720895e+04   2.1768731e+04   2.1815836e+04   2.1862942e+04   2.1909491e+04   2.1956041e+04   2.2002155e+04   2.2048271e+04   2.2094137e+04   2.2140002e+04   2.2185597e+04   2.2231192e+04   2.2276631e+04   2.2322069e+04   2.2363879e+04   2.2405688e+04   2.2447498e+04   2.2489307e+04   2.2528657e+04   2.2568007e+04   2.2607357e+04   2.2646707e+04   2.2684309e+04   2.2721912e+04   2.2759515e+04   2.2797119e+04   2.2832987e+04   2.2868857e+04   2.2904726e+04   2.2940595e+04   2.2966120e+04   2.2991646e+04   2.3017173e+04   2.3042698e+04   2.3064185e+04   2.3085438e+04   2.3106421e+04   2.3127150e+04   2.3147671e+04   2.3167882e+04   2.3187810e+04   2.3207502e+04   2.3227011e+04   2.3246344e+04   2.3265534e+04   2.3284612e+04   2.3303610e+04   2.3322519e+04   2.3341357e+04   2.3361201e+04   2.3382094e+04   2.3404322e+04   2.3427750e+04   2.3453061e+04   2.3480066e+04   2.3508852e+04   2.3539136e+04   2.3570612e+04   2.3603015e+04   2.3636151e+04   2.3669832e+04   2.3705217e+04   2.3742221e+04   2.3781118e+04   2.3821666e+04   2.3864273e+04   2.3908658e+04   2.3954977e+04   2.4002929e+04   2.4052494e+04   2.4103380e+04   2.4156114e+04   2.4210477e+04   2.4266807e+04   2.4324847e+04   2.4385139e+04   2.4447427e+04   2.4512034e+04   2.4578654e+04   2.4659879e+04   2.4756954e+04   2.4871759e+04   2.4999921e+04   2.5134720e+04   2.5269134e+04   2.5455034e+04   2.5647239e+04   2.5855041e+04   2.6071930e+04   2.6302886e+04   2.6542440e+04   2.6795444e+04   2.7057357e+04   2.7330298e+04   2.7610750e+04   2.7901684e+04   2.8200401e+04   2.8507848e+04   2.8821803e+04   2.9143136e+04   2.9470320e+04   2.9803367e+04   3.0141027e+04   3.0483300e+04   3.0829374e+04   3.1178991e+04   3.1531506e+04   3.1886911e+04   3.2244808e+04   3.2605074e+04   3.2967328e+04
