1157.050        1211.805        1265.002        1316.877        1367.578        1417.056        1465.276        1512.233        1557.987        1602.633        1646.332        1689.226        1731.343        1772.584        1812.742        1851.620        1889.172        1925.412        1960.329        1993.926        2026.291        2057.605        2088.082        2117.837        2146.824        2175.068        2202.713        2228.841        2253.671        2278.108        2301.954        2325.269        2348.164        2370.683        2392.729        2412.833        2430.257        2445.178        2458.175        2469.752        2480.330        2490.118        2499.322        2508.025        2516.330        2524.333        2532.133        2539.837        2546.411        2552.985        2559.103        2565.220        2571.083        2576.946        2582.677        2588.409        2594.073        2599.738        2605.383        2611.028        2616.677        2622.326        2627.995        2633.665        2639.458        2645.252        2651.149        2657.046        2663.056        2669.066        2675.139        2681.212        2687.244        2693.276        2699.279        2705.282        2711.208        2717.133        2722.989        2728.845        2734.597        2740.349        2746.052        2751.756        2757.384        2763.012        2768.562        2774.112        2779.320        2784.529        2789.737        2794.945        2799.844        2804.743        2809.642        2814.541        2819.221        2823.900        2828.581        2833.260        2837.723        2842.186        2846.649        2851.112        2854.287        2857.462        2860.637        2863.812        2866.484        2869.127        2871.737        2874.314        2876.865        2879.377        2881.854        2884.302        2886.727        2889.130        2891.514        2893.885        2896.246        2898.595        2900.936        2903.401        2905.996        2908.757        2911.667        2914.810        2918.163        2921.738        2925.499        2929.407        2933.431        2937.545        2941.728        2946.121        2950.716        2955.545        2960.579        2965.868        2971.378        2977.128        2983.081        2989.234        2995.550        3002.096        3008.843        3015.833        3023.035        3030.515        3038.242        3046.255        3054.516        3064.585        3076.618        3090.843        3106.739        3123.490        3140.255        3163.320        3187.173        3212.947        3239.860        3268.496        3298.210        3329.582        3362.073        3395.914        3430.693        3466.759        3503.797        3541.899        3580.810        3620.627        3661.173        3702.434        3744.268        3786.669        3829.541        3872.845        3916.508        3960.525        4004.852        4049.471        4094.338        4139.458
1158.600        1213.376        1266.582        1318.461        1369.152        1418.629        1466.833        1513.779        1559.550        1604.252        1648.009        1690.929        1733.033        1774.238        1814.312        1853.082        1890.532        1926.675        1961.499        1994.983        2027.169        2058.198        2088.263        2117.505        2145.961        2173.769        2201.178        2227.194        2251.997        2276.357        2300.176        2323.518        2346.412        2368.818        2390.580        2410.286        2427.319        2441.916        2454.632        2465.927        2476.191        2485.633        2494.456        2502.750        2510.631        2518.212        2525.603        2532.923        2539.410        2545.897        2552.104        2558.312        2564.390        2570.469        2576.484        2582.500        2588.470        2594.441        2600.407        2606.373        2612.327        2618.281        2624.241        2630.201        2636.268        2642.334        2648.469        2654.604        2660.699        2666.794        2672.852        2678.910        2684.899        2690.888        2696.827        2702.766        2708.615        2714.463        2720.243        2726.022        2731.748        2737.473        2743.168        2748.863        2754.524        2760.185        2765.826        2771.468        2776.659        2781.850        2787.041        2792.232        2797.117        2802.003        2806.889        2811.774        2816.443        2821.112        2825.780        2830.449        2834.903        2839.356        2843.809        2848.263        2851.432        2854.601        2857.771        2860.940        2863.608        2866.246        2868.852        2871.425        2873.973        2876.482        2878.957        2881.402        2883.824        2886.224        2888.607        2890.975        2893.334        2895.682        2898.021        2900.485        2903.079        2905.838        2908.747        2911.890        2915.243        2918.817        2922.577        2926.485        2930.508        2934.622        2938.804        2943.197        2947.791        2952.621        2957.655        2962.945        2968.456        2974.207        2980.160        2986.314        2992.632        2999.179        3005.929        3012.923        3020.129        3027.615        3035.348        3043.370        3051.641        3061.726        3073.779        3088.033        3103.945        3120.681        3137.370        3160.451        3184.315        3210.115        3237.044        3265.719        3295.461        3326.874        3359.393        3393.281        3428.101        3464.223        3501.311        3539.483        3578.463        3618.359        3658.982        3700.332        3742.256        3784.751        3827.719        3871.127        3914.895        3959.021        4003.457        4048.187        4093.164        4138.391
1159.886        1214.686        1267.905        1319.781        1370.451        1419.919        1468.092        1515.005        1560.761        1605.480        1649.250        1692.157        1734.226        1775.359        1815.294        1853.921        1891.250        1927.283        1961.990        1995.342        2027.371        2058.199        2088.003        2116.932        2145.076        2172.649        2199.944        2225.860        2250.586        2274.886        2298.708        2322.070        2344.940        2367.232        2388.776        2408.209        2424.993        2439.374        2451.878        2462.940        2472.945        2482.108        2490.642        2498.655        2506.270        2513.626        2520.856        2528.098        2534.537        2540.975        2547.215        2553.455        2559.605        2565.755        2571.865        2577.974        2584.081        2590.189        2596.309        2602.428        2608.548        2614.667        2620.789        2626.911        2633.089        2639.268        2645.482        2651.697        2657.863        2664.029        2670.144        2676.258        2682.275        2688.292        2694.242        2700.191        2706.031        2711.872        2717.634        2723.395        2729.105        2734.814        2740.497        2746.179        2751.841        2757.503        2763.125        2768.746        2773.921        2779.097        2784.272        2789.447        2794.320        2799.193        2804.065        2808.938        2813.596        2818.255        2822.913        2827.571        2832.016        2836.461        2840.906        2845.351        2848.515        2851.678        2854.842        2858.006        2860.670        2863.305        2865.906        2868.477        2871.021        2873.528        2876.000        2878.442        2880.862        2883.261        2885.642        2888.009        2890.366        2892.713        2895.050        2897.514        2900.107        2902.867        2905.777        2908.920        2912.274        2915.850        2919.613        2923.524        2927.550        2931.668        2935.853        2940.251        2944.850        2949.686        2954.728        2960.024        2965.542        2971.300        2977.262        2983.425        2989.753        2996.311        3003.072        3010.078        3017.297        3024.797        3032.545        3040.584        3048.873        3058.979        3071.060        3085.344        3101.295        3118.072        3134.789        3157.909        3181.810        3207.641        3234.596        3263.302        3293.070        3324.507        3357.045        3390.961        3425.807        3461.964        3499.089        3537.314        3576.352        3616.315        3657.009        3698.442        3740.451        3783.040        3826.104        3869.615        3913.490        3957.730        4002.281        4047.129        4092.225        4137.565
1160.917        1215.725        1268.960        1320.828        1371.488        1420.938        1469.082        1515.956        1561.688        1606.392        1650.143        1693.015        1735.051        1776.088        1815.885        1854.376        1891.587        1927.511        1962.104        1995.332        2027.235        2057.926        2087.573        2116.324        2144.289        2171.717        2198.924        2224.745        2249.400        2273.665        2297.490        2320.847        2343.663        2365.828        2387.183        2406.386        2422.958        2437.138        2449.440        2460.288        2470.076        2479.026        2487.361        2495.194        2502.652        2509.868        2516.969        2524.083        2530.489        2536.894        2543.145        2549.395        2555.586        2561.777        2567.943        2574.108        2580.295        2586.481        2592.692        2598.904        2605.122        2611.340        2617.562        2623.783        2630.036        2636.289        2642.559        2648.828        2655.034        2661.239        2667.392        2673.544        2679.591        2685.639        2691.609        2697.579        2703.427        2709.276        2715.035        2720.794        2726.495        2732.196        2737.861        2743.526        2749.173        2754.821        2760.423        2766.025        2771.184        2776.344        2781.503        2786.663        2791.523        2796.383        2801.242        2806.103        2810.750        2815.398        2820.045        2824.693        2829.130        2833.566        2838.003        2842.439        2845.597        2848.756        2851.914        2855.073        2857.732        2860.363        2862.960        2865.528        2868.069        2870.573        2873.042        2875.482        2877.900        2880.296        2882.676        2885.041        2887.397        2889.743        2892.079        2894.542        2897.135        2899.895        2902.804        2905.948        2909.302        2912.879        2916.642        2920.554        2924.583        2928.703        2932.891        2937.292        2941.896        2946.737        2951.783        2957.086        2962.610        2968.375        2974.344        2980.515        2986.852        2993.419        3000.190        3007.205        3014.434        3021.945        3029.707        3037.762        3046.071        3056.205        3068.319        3082.632        3098.607        3115.396        3132.104        3155.261        3179.197        3205.062        3232.049        3260.787        3290.580        3322.043        3354.607        3388.555        3423.434        3459.631        3496.800        3535.082        3574.180        3614.214        3654.984        3696.502        3738.600        3781.283        3824.447        3868.064        3912.048        3956.401        4001.068        4046.034        4091.247        4136.700
1161.740        1216.543        1269.787        1321.652        1372.307        1421.739        1469.855        1516.697        1562.402        1607.077        1650.793        1693.634        1735.619        1776.560        1816.240        1854.619        1891.726        1927.551        1962.042        1995.169        2026.974        2057.568        2087.113        2115.754        2143.604        2170.928        2198.034        2223.763        2248.364        2272.609        2296.425        2319.751        2342.487        2364.512        2385.682        2404.677        2421.061        2435.072        2447.219        2457.928        2467.592        2476.438        2484.689        2492.457        2499.867        2507.053        2514.143        2521.261        2527.653        2534.045        2540.283        2546.522        2552.707        2558.891        2565.053        2571.215        2577.404        2583.592        2589.809        2596.026        2602.260        2608.493        2614.736        2620.978        2627.246        2633.513        2639.795        2646.076        2652.294        2658.511        2664.677        2670.842        2676.903        2682.965        2688.947        2694.929        2700.783        2706.638        2712.398        2718.158        2723.853        2729.548        2735.202        2740.855        2746.489        2752.123        2757.710        2763.297        2768.442        2773.586        2778.730        2783.874        2788.722        2793.569        2798.416        2803.264        2807.901        2812.538        2817.175        2821.812        2826.240        2830.668        2835.096        2839.524        2842.677        2845.830        2848.983        2852.136        2854.792        2857.418        2860.013        2862.576        2865.115        2867.616        2870.082        2872.520        2874.936        2877.331        2879.708        2882.073        2884.427        2886.772        2889.107        2891.569        2894.162        2896.921        2899.831        2902.973        2906.327        2909.902        2913.663        2917.576        2921.607        2925.731        2929.924        2934.332        2938.942        2943.790        2948.843        2954.151        2959.679        2965.449        2971.424        2977.602        2983.945        2990.517        2997.291        3004.307        3011.536        3019.051        3026.821        3034.889        3043.213        3053.371        3065.497        3079.810        3095.796        3112.644        3129.474        3152.672        3176.642        3202.536        3229.560        3258.332        3288.142        3319.625        3352.218        3386.199        3421.106        3457.341        3494.559        3532.902        3572.062        3612.166        3653.018        3694.625        3736.812        3779.591        3822.856        3866.579        3910.671        3955.135        3999.917        4045.000        4090.329        4135.890
1162.450        1217.239        1270.485        1322.354        1373.005        1422.420        1470.509        1517.325        1563.001        1607.640        1651.317        1694.121        1736.046        1776.893        1816.475        1854.762        1891.778        1927.508        1961.906        1994.943        2026.664        2057.175        2086.636        2115.192        2142.960        2170.208        2197.234        2222.884        2247.419        2271.630        2295.408        2318.669        2341.295        2363.168        2384.159        2402.973        2419.200        2433.078        2445.111        2455.725        2465.313        2474.101        2482.308        2490.046        2497.437        2504.606        2511.674        2518.758        2525.146        2531.534        2537.765        2543.995        2550.169        2556.344        2562.492        2568.641        2574.817        2580.993        2587.198        2593.402        2599.628        2605.854        2612.094        2618.333        2624.597        2630.861        2637.139        2643.418        2649.637        2655.855        2662.023        2668.191        2674.255        2680.320        2686.305        2692.290        2698.144        2703.999        2709.756        2715.513        2721.201        2726.890        2732.534        2738.179        2743.802        2749.426        2754.998        2760.570        2765.699        2770.828        2775.957        2781.086        2785.920        2790.755        2795.590        2800.425        2805.052        2809.678        2814.305        2818.931        2823.351        2827.771        2832.190        2836.610        2839.757        2842.905        2846.052        2849.200        2851.851        2854.474        2857.065        2859.625        2862.161        2864.659        2867.123        2869.559        2871.973        2874.365        2876.741        2879.104        2881.458        2883.801        2886.135        2888.597        2891.189        2893.948        2896.857        2899.998        2903.350        2906.921        2910.679        2914.589        2918.616        2922.737        2926.928        2931.335        2935.945        2940.792        2945.842        2951.147        2956.670        2962.437        2968.407        2974.582        2980.923        2987.489        2994.254        3001.255        3008.464        3015.960        3023.709        3031.758        3040.062        3050.209        3062.313        3076.595        3092.573        3109.487        3126.506        3149.708        3173.719        3199.667        3226.702        3255.419        3285.232        3316.751        3349.378        3383.369        3418.329        3454.635        3491.896        3530.266        3569.499        3609.698        3650.641        3692.330        3734.629        3777.528        3820.910        3864.748        3908.971        3953.570        3998.484        4043.692        4089.154        4134.850
1163.090        1217.860        1271.108        1322.985        1373.638        1423.039        1471.108        1517.904        1563.552        1608.152        1651.789        1694.552        1736.411        1777.171        1816.668        1854.873        1891.803        1927.443        1961.749        1994.695        2026.327        2056.751        2086.127        2114.601        2142.289        2169.469        2196.448        2222.031        2246.485        2270.626        2294.327        2317.484        2339.978        2361.700        2382.539        2401.230        2417.372        2431.192        2443.189        2453.781        2463.355        2472.139        2480.348        2488.092        2495.490        2502.667        2509.745        2516.840        2523.221        2529.601        2535.813        2542.026        2548.170        2554.314        2560.425        2566.536        2572.670        2578.803        2584.963        2591.123        2597.308        2603.494        2609.697        2615.900        2622.135        2628.370        2634.625        2640.880        2647.083        2653.285        2659.443        2665.601        2671.659        2677.717        2683.698        2689.679        2695.530        2701.380        2707.132        2712.884        2718.564        2724.244        2729.878        2735.511        2741.121        2746.730        2752.284        2757.839        2762.953        2768.068        2773.182        2778.297        2783.120        2787.942        2792.765        2797.588        2802.204        2806.821        2811.437        2816.053        2820.465        2824.876        2829.287        2833.698        2836.840        2839.982        2843.124        2846.266        2848.913        2851.532        2854.119        2856.676        2859.208        2861.704        2864.165        2866.599        2869.010        2871.401        2873.775        2876.136        2878.489        2880.830        2883.164        2885.623        2888.214        2890.970        2893.877        2897.005        2900.333        2903.870        2907.584        2911.442        2915.412        2919.470        2923.594        2927.945        2932.506        2937.315        2942.338        2947.626        2953.140        2958.904        2964.879        2971.063        2977.417        2983.987        2990.746        2997.723        3004.891        3012.341        3020.039        3028.039        3036.297        3046.426        3058.503        3072.777        3088.722        3105.553        3122.428        3145.741        3169.914        3195.893        3222.856        3251.589        3281.500        3313.109        3345.798        3379.881        3414.979        3451.377        3488.678        3527.111        3566.457        3606.772        3647.812        3689.613        3732.053        3775.094        3818.606        3862.581        3906.958        3951.710        3996.767        4042.119        4087.730        4133.581
1163.642        1218.386        1271.635        1323.522        1374.181        1423.576        1471.634        1518.414        1564.039        1608.604        1652.203        1694.921        1736.717        1777.399        1816.819        1854.948        1891.798        1927.351        1961.560        1994.401        2025.928        2056.258        2085.547        2113.933        2141.532        2168.630        2195.548        2221.063        2245.436        2269.482        2293.069        2316.093        2338.441        2360.024        2380.747        2399.362        2415.468        2429.282        2441.286        2451.891        2461.481        2470.280        2478.504        2486.262        2493.673        2500.858        2507.935        2515.020        2521.392        2527.763        2533.956        2540.149        2546.261        2552.373        2558.444        2564.515        2570.605        2576.695        2582.809        2588.923        2595.066        2601.209        2607.373        2613.537        2619.736        2625.935        2632.157        2638.380        2644.560        2650.739        2656.881        2663.023        2669.071        2675.119        2681.092        2687.065        2692.908        2698.752        2704.496        2710.240        2715.913        2721.585        2727.210        2732.835        2738.435        2744.035        2749.571        2755.107        2760.208        2765.308        2770.408        2775.508        2780.319        2785.129        2789.940        2794.750        2799.357        2803.963        2808.569        2813.175        2817.578        2821.981        2826.384        2830.787        2833.923        2837.060        2840.196        2843.332        2845.975        2848.590        2851.173        2853.727        2856.256        2858.749        2861.208        2863.638        2866.048        2868.437        2870.809        2873.169        2875.519        2877.860        2880.192        2882.650        2885.239        2887.993        2890.896        2894.012        2897.319        2900.823        2904.494        2908.301        2912.211        2916.203        2920.256        2924.541        2929.045        2933.807        2938.797        2944.058        2949.552        2955.304        2961.273        2967.458        2973.820        2980.389        2987.138        2994.086        3001.205        3008.594        3016.222        3024.153        3032.343        3042.415        3054.445        3068.695        3084.618        3101.396        3118.202        3141.627        3165.979        3191.961        3218.808        3247.549        3277.578        3309.283        3342.033        3376.223        3411.488        3447.992        3485.333        3523.842        3563.322        3603.763        3644.905        3686.827        3729.421        3772.611        3816.257        3860.375        3904.914        3949.823        3995.025        4040.522        4086.287        4132.290
1164.102        1218.812        1272.056        1323.951        1374.617        1424.010        1472.061        1518.829        1564.433        1608.967        1652.528        1695.202        1736.939        1777.550        1816.897        1854.952        1891.724        1927.192        1961.296        1994.008        2025.404        2055.622        2084.815        2113.111        2140.618        2167.630        2194.486        2219.924        2244.198        2268.116        2291.559        2314.429        2336.627        2358.076        2378.696        2397.246        2413.338        2427.176        2439.219        2449.865        2459.492        2468.322        2476.571        2484.350        2491.778        2498.972        2506.050        2513.131        2519.495        2525.860        2532.042        2538.225        2544.317        2550.409        2556.459        2562.509        2568.571        2574.633        2580.715        2586.797        2592.905        2599.012        2605.137        2611.262        2617.421        2623.579        2629.766        2635.952        2642.104        2648.255        2654.373        2660.491        2666.520        2672.548        2678.503        2684.458        2690.284        2696.111        2701.838        2707.566        2713.230        2718.894        2724.507        2730.120        2735.704        2741.287        2746.826        2752.364        2757.450        2762.536        2767.622        2772.708        2777.506        2782.305        2787.104        2791.902        2796.499        2801.095        2805.691        2810.287        2814.682        2819.076        2823.471        2827.866        2830.997        2834.128        2837.260        2840.391        2843.030        2845.641        2848.221        2850.772        2853.299        2855.788        2858.245        2860.674        2863.081        2865.468        2867.839        2870.198        2872.547        2874.886        2877.218        2879.674        2882.261        2885.013        2887.914        2891.018        2894.304        2897.777        2901.406        2905.160        2909.010        2912.935        2916.915        2921.135        2925.581        2930.298        2935.253        2940.488        2945.963        2951.703        2957.664        2963.848        2970.215        2976.783        2983.523        2990.443        2997.515        3004.844        3012.400        3020.259        3028.382        3038.391        3050.376        3064.615        3080.520        3097.230        3113.908        3137.437        3161.968        3187.948        3214.665        3243.409        3273.564        3305.367        3338.173        3372.474        3407.914        3444.528        3481.906        3520.490        3560.108        3600.676        3641.916        3683.959        3726.710        3770.051        3813.831        3858.093        3902.796        3947.861        3993.207        4038.848        4084.764        4130.914
1164.516        1219.190        1272.425        1324.327        1375.000        1424.394        1472.438        1519.194        1564.776        1609.280        1652.804        1695.432        1737.109        1777.652        1816.926        1854.905        1891.598        1926.977        1960.967        1993.533        2024.767        2054.836        2083.908        2112.104        2139.516        2166.431        2193.184        2218.535        2242.727        2266.519        2289.811        2312.518        2334.552        2355.846        2376.327        2394.757        2410.777        2424.584        2436.623        2447.281        2456.927        2465.781        2474.057        2481.864        2489.322        2496.551        2503.674        2510.812        2517.197        2523.581        2529.782        2535.983        2542.091        2548.200        2554.263        2560.326        2566.393        2572.459        2578.538        2584.616        2590.707        2596.798        2602.895        2608.993        2615.121        2621.250        2627.406        2633.561        2639.682        2645.804        2651.891        2657.978        2663.976        2669.973        2675.897        2681.821        2687.618        2693.415        2699.116        2704.817        2710.459        2716.102        2721.716        2727.329        2732.934        2738.539        2744.080        2749.621        2754.693        2759.764        2764.835        2769.907        2774.694        2779.480        2784.267        2789.054        2793.640        2798.227        2802.813        2807.399        2811.785        2816.172        2820.558        2824.945        2828.071        2831.197        2834.323        2837.450        2840.084        2842.692        2845.268        2847.816        2850.339        2852.826        2855.281        2857.708        2860.113        2862.498        2864.867        2867.225        2869.573        2871.911        2874.241        2876.697        2879.282        2882.031        2884.929        2888.021        2891.287        2894.729        2898.317        2902.022        2905.816        2909.680        2913.596        2917.756        2922.151        2926.830        2931.758        2936.976        2942.440        2948.175        2954.137        2960.328        2966.708        2973.284        2980.026        2986.932        2993.972        3001.257        3008.767        3016.581        3024.670        3034.646        3046.620        3060.871        3076.773        3093.416        3109.916        3133.593        3158.300        3184.243        3210.850        3239.701        3270.006        3301.896        3334.756        3369.201        3404.796        3441.484        3478.899        3517.591        3557.331        3597.997        3639.322        3681.486        3724.368        3767.829        3811.724        3856.122        3900.974        3946.183        3991.669        4037.461        4083.534        4129.829
1164.889        1219.532        1272.764        1324.676        1375.358        1424.757        1472.799        1519.544        1565.106        1609.580        1653.066        1695.646        1737.267        1777.743        1816.945        1854.846        1891.458        1926.749        1960.632        1993.053        2024.108        2053.995        2082.912        2110.981        2138.285        2165.075        2191.644        2216.896        2241.053        2264.762        2287.928        2310.479        2332.336        2353.438        2373.716        2391.937        2407.750        2421.362        2433.231        2443.753        2453.299        2462.091        2470.337        2478.149        2485.639        2492.919        2500.095        2507.267        2513.793        2520.319        2526.675        2533.031        2539.280        2545.528        2551.712        2557.896        2564.046        2570.196        2576.325        2582.453        2588.558        2594.663        2600.749        2606.835        2612.917        2619.000        2625.083        2631.165        2637.202        2643.240        2649.238        2655.235        2661.144        2667.052        2672.891        2678.729        2684.450        2690.171        2695.805        2701.438        2707.013        2712.587        2718.120        2723.653        2729.158        2734.664        2740.126        2745.588        2750.653        2755.718        2760.783        2765.848        2770.721        2775.595        2780.469        2785.343        2790.103        2794.862        2799.622        2804.381        2808.762        2813.142        2817.522        2821.903        2825.024        2828.146        2831.269        2834.390        2837.022        2839.627        2842.202        2844.747        2847.268        2849.754        2852.207        2854.632        2857.037        2859.421        2861.790        2864.146        2866.494        2868.833        2871.163        2873.620        2876.206        2878.957        2881.856        2884.951        2888.220        2891.665        2895.256        2898.963        2902.759        2906.623        2910.539        2914.697        2919.090        2923.767        2928.693        2933.907        2939.365        2945.094        2951.052        2957.239        2963.618        2970.196        2976.940        2983.847        2990.887        2998.167        3005.669        3013.476        3021.559        3031.511        3043.473        3057.702        3073.620        3090.334        3106.961        3130.671        3155.426        3181.384        3207.993        3236.875        3267.253        3299.209        3332.122        3366.631        3402.298        3439.042        3476.495        3515.240        3555.051        3595.790        3637.185        3679.430        3722.404        3765.960        3809.950        3854.459        3899.441        3944.787        3990.410        4036.351        4082.582        4129.030
1165.178        1219.794        1273.025        1324.945        1375.639        1425.044        1473.087        1519.823        1565.365        1609.811        1653.260        1695.794        1737.360        1777.776        1816.911        1854.740        1891.276        1926.487        1960.276        1992.572        2023.467        2053.178        2081.924        2109.841        2137.016        2163.672        2190.069        2215.218        2239.328        2262.968        2286.030        2308.444        2330.130        2351.029        2371.081        2389.073        2404.643        2418.021        2429.682        2440.040        2449.463        2458.180        2466.390        2474.206        2481.733        2489.075        2496.323        2503.565        2510.251        2516.938        2523.470        2530.001        2536.406        2542.810        2549.126        2555.443        2561.683        2567.923        2574.108        2580.294        2586.420        2592.547        2598.631        2604.715        2610.756        2616.797        2622.806        2628.816        2634.765        2640.714        2646.614        2652.514        2658.327        2664.139        2669.886        2675.632        2681.273        2686.913        2692.476        2698.038        2703.541        2709.043        2714.494        2719.945        2725.366        2730.789        2736.172        2741.555        2746.613        2751.672        2756.730        2761.789        2766.750        2771.710        2776.671        2781.632        2786.565        2791.498        2796.431        2801.364        2805.738        2810.112        2814.486        2818.860        2821.978        2825.096        2828.213        2831.331        2833.960        2836.562        2839.134        2841.677        2844.197        2846.680        2849.132        2851.556        2853.959        2856.343        2858.711        2861.067        2863.415        2865.753        2868.084        2870.541        2873.127        2875.879        2878.779        2881.875        2885.146        2888.593        2892.186        2895.895        2899.693        2903.561        2907.480        2911.644        2916.043        2920.725        2925.657        2930.875        2936.338        2942.071        2948.032        2954.225        2960.609        2967.190        2973.937        2980.846        2987.889        2995.175        3002.688        3010.509        3018.607        3028.573        3040.541        3054.770        3070.693        3087.448        3104.143        3127.879        3152.689        3178.714        3205.462        3234.542        3265.001        3297.002        3329.983        3364.570        3400.253        3436.990        3474.495        3513.314        3553.145        3593.898        3635.350        3677.664        3720.686        3764.291        3808.362        3852.978        3898.030        3943.428        3989.162        4035.241        4081.623        4128.224
1165.389        1219.977        1273.204        1325.128        1375.826        1425.234        1473.273        1519.996        1565.517        1609.932        1653.342        1695.828        1737.338        1777.696        1816.768        1854.529        1890.993        1926.129        1959.836        1992.037        2022.819        2052.392        2080.981        2108.744        2135.781        2162.304        2188.554        2213.613        2237.654        2261.219        2284.191        2306.486        2328.024        2348.750        2368.610        2386.427        2401.836        2415.081        2426.636        2436.915        2446.283        2454.970        2463.170        2470.994        2478.546        2485.928        2493.232        2500.551        2507.318        2514.085        2520.705        2527.325        2533.809        2540.292        2546.676        2553.060        2559.346        2565.632        2571.847        2578.062        2584.199        2590.336        2596.419        2602.502        2608.523        2614.545        2620.521        2626.497        2632.397        2638.298        2644.143        2649.987        2655.744        2661.501        2667.194        2672.887        2678.480        2684.073        2689.594        2695.114        2700.581        2706.047        2711.482        2716.918        2722.350        2727.782        2733.155        2738.528        2743.579        2748.630        2753.681        2758.732        2763.698        2768.663        2773.628        2778.594        2783.530        2788.467        2793.404        2798.340        2802.708        2807.076        2811.444        2815.813        2818.927        2822.040        2825.154        2828.268        2830.895        2833.494        2836.064        2838.605        2841.123        2843.605        2846.055        2848.478        2850.880        2853.263        2855.631        2857.987        2860.334        2862.672        2865.003        2867.460        2870.047        2872.800        2875.701        2878.798        2882.070        2885.518        2889.113        2892.823        2896.624        2900.495        2904.419        2908.586        2912.990        2917.678        2922.615        2927.838        2933.307        2939.046        2945.014        2951.214        2957.606        2964.196        2970.950        2977.866        2984.916        2992.211        2999.734        3007.568        3015.680        3025.664        3037.652        3051.896        3067.835        3084.618        3101.355        3125.218        3150.221        3176.595        3203.810        3233.061        3263.470        3295.447        3328.461        3363.024        3398.610        3435.330        3472.915        3511.761        3551.547        3592.284        3633.777        3676.125        3719.152        3762.790        3806.937        3851.609        3896.662        3942.097        3987.943        4034.162        4080.695        4127.451
1165.577        1220.138        1273.360        1325.285        1375.980        1425.384        1473.412        1520.117        1565.610        1609.990        1653.356        1695.790        1737.242        1777.538        1816.546        1854.238        1890.630        1925.692        1959.322        1991.447        2022.146        2051.614        2080.075        2107.700        2134.608        2161.010        2187.144        2212.116        2236.072        2259.544        2282.418        2304.607        2326.023        2346.615        2366.339        2384.040        2399.357        2412.509        2424.023        2434.298        2443.665        2452.347        2460.542        2468.366        2475.925        2483.318        2490.635        2497.959        2504.767        2511.576        2518.239        2524.902        2531.419        2537.937        2544.347        2550.758        2557.059        2563.359        2569.580        2575.800        2581.934        2588.067        2594.140        2600.212        2606.210        2612.208        2618.153        2624.097        2629.960        2635.823        2641.626        2647.430        2653.147        2658.864        2664.517        2670.170        2675.728        2681.286        2686.775        2692.263        2697.705        2703.146        2708.558        2713.970        2719.373        2724.775        2730.138        2735.501        2740.545        2745.589        2750.632        2755.676        2760.646        2765.616        2770.585        2775.555        2780.496        2785.436        2790.376        2795.317        2799.679        2804.041        2808.403        2812.765        2815.875        2818.985        2822.095        2825.206        2827.829        2830.426        2832.993        2835.532        2838.048        2840.529        2842.978        2845.400        2847.801        2850.184        2852.551        2854.906        2857.253        2859.591        2861.922        2864.379        2866.967        2869.721        2872.623        2875.722        2878.995        2882.445        2886.042        2889.754        2893.558        2897.431        2901.357        2905.528        2909.935        2914.627        2919.568        2924.797        2930.271        2936.017        2941.992        2948.199        2954.599        2961.197        2967.959        2974.884        2981.943        2989.248        2996.781        3004.625        3012.749        3022.747        3034.753        3049.015        3064.977        3081.783        3098.558        3122.578        3147.786        3174.547        3202.226        3231.597        3261.981        3293.954        3326.979        3361.476        3396.961        3433.684        3471.324        3510.167        3549.920        3590.665        3632.192        3674.561        3717.601        3761.283        3805.499        3850.185        3895.221        3940.720        3986.688        4033.044        4079.719        4126.617
1165.771        1220.310        1273.528        1325.451        1376.141        1425.535        1473.549        1520.231        1565.693        1610.035        1653.354        1695.733        1737.125        1777.358        1816.301        1853.924        1890.245        1925.233        1958.788        1990.839        2021.460        2050.837        2079.191        2106.699        2133.491        2159.789        2185.853        2210.745        2234.611        2257.959        2280.718        2302.795        2324.105        2344.591        2364.221        2381.916        2397.062        2410.087        2421.638        2432.029        2441.475        2450.195        2458.398        2466.216        2473.763        2481.145        2488.449        2495.747        2502.550        2509.352        2516.004        2522.656        2529.159        2535.662        2542.057        2548.452        2554.736        2561.020        2567.226        2573.431        2579.550        2585.669        2591.727        2597.785        2603.766        2609.747        2615.673        2621.598        2627.442        2633.287        2639.072        2644.857        2650.554        2656.252        2661.886        2667.520        2673.059        2678.598        2684.068        2689.537        2694.960        2700.383        2705.778        2711.173        2716.558        2721.943        2727.285        2732.627        2737.657        2742.688        2747.717        2752.747        2757.704        2762.660        2767.616        2772.573        2777.503        2782.433        2787.363        2792.293        2796.650        2801.006        2805.362        2809.719        2812.825        2815.931        2819.037        2822.144        2824.764        2827.359        2829.924        2832.460        2834.975        2837.454        2839.901        2842.322        2844.722        2847.104        2849.470        2851.825        2854.172        2856.510        2858.840        2861.298        2863.886        2866.641        2869.544        2872.644        2875.919        2879.370        2882.969        2886.684        2890.490        2894.365        2898.294        2902.467        2906.878        2911.573        2916.518        2921.752        2927.231        2932.983        2938.964        2945.178        2951.585        2958.191        2964.962        2971.896        2978.964        2986.278        2993.821        3001.676        3009.811        3019.822        3031.843        3046.126        3062.109        3078.938        3095.736        3119.831        3145.140        3172.094        3200.018        3229.560        3260.050        3292.075        3325.134        3359.634        3395.094        3431.824        3469.503        3508.384        3548.158        3588.932        3630.500        3672.912        3715.990        3759.723        3804.006        3848.724        3893.764        3939.322        3985.397        4031.879        4078.685        4125.714
1165.964        1220.479        1273.688        1325.600        1376.276        1425.654        1473.647        1520.300        1565.728        1610.027        1653.296        1695.617        1736.948        1777.119        1815.998        1853.557        1889.811        1924.732        1958.220        1990.205        2020.760        2050.061        2078.324        2105.735        2132.429        2158.622        2184.599        2209.406        2233.281        2256.598        2279.294        2301.296        2322.532        2342.948        2362.512        2380.041        2395.547        2408.870        2420.174        2430.260        2439.470        2448.042        2456.167        2463.952        2471.489        2478.874        2486.192        2493.535        2500.321        2507.107        2513.739        2520.370        2526.851        2533.332        2539.706        2546.081        2552.347        2558.613        2564.804        2570.994        2577.100        2583.205        2589.250        2595.296        2601.263        2607.230        2613.141        2619.052        2624.881        2630.711        2636.481        2642.252        2647.935        2653.617        2659.236        2664.854        2670.378        2675.901        2681.354        2686.808        2692.214        2697.621        2702.999        2708.376        2713.743        2719.110        2724.431        2729.753        2734.770        2739.786        2744.802        2749.819        2754.762        2759.705        2764.647        2769.590        2774.510        2779.430        2784.350        2789.270        2793.621        2797.971        2802.322        2806.672        2809.775        2812.877        2815.979        2819.082        2821.700        2824.292        2826.854        2829.389        2831.901        2834.378        2836.824        2839.244        2841.643        2844.024        2846.389        2848.744        2851.090        2853.428        2855.759        2858.216        2860.805        2863.560        2866.465        2869.566        2872.842        2876.295        2879.896        2883.613        2887.421        2891.300        2895.231        2899.408        2903.821        2908.520        2913.469        2918.708        2924.192        2929.949        2935.937        2942.158        2948.572        2955.186        2961.966        2968.909        2975.987        2983.312        2990.866        2998.732        3006.879        3016.902        3028.940        3043.244        3059.252        3076.108        3092.922        3117.067        3142.435        3169.510        3197.579        3227.214        3257.793        3289.888        3323.001        3357.517        3392.988        3429.755        3467.485        3506.410        3546.228        3587.054        3628.678        3671.140        3714.269        3758.064        3802.421        3847.204        3892.312        3937.957        3984.136        4030.738        4077.672        4124.830
1166.151        1220.639        1273.827        1325.715        1376.362        1425.710        1473.667        1520.282        1565.666        1609.915        1653.126        1695.385        1736.652        1776.758        1815.568        1853.063        1889.255        1924.115        1957.546        1989.491        2020.014        2049.272        2077.479        2104.827        2131.454        2157.551        2183.406        2208.116        2232.281        2255.766        2278.660        2300.763        2322.186        2342.680        2362.400        2381.115        2399.033        2416.014        2424.153        2432.292        2440.050        2447.807        2455.284        2462.761        2469.950        2477.139        2484.117        2491.096        2497.864        2504.631        2511.247        2517.862        2524.331        2530.800        2537.167        2543.533        2549.795        2556.057        2562.244        2568.431        2574.532        2580.634        2586.673        2592.712        2598.670        2604.628        2610.527        2616.427        2622.244        2628.060        2633.817        2639.574        2645.243        2650.911        2656.516        2662.120        2667.628        2673.136        2678.575        2684.013        2689.406        2694.800        2700.162        2705.525        2710.876        2716.228        2721.537        2726.847        2731.850        2736.853        2741.856        2746.860        2751.790        2756.721        2761.652        2766.583        2771.495        2776.407        2781.320        2786.232        2790.577        2794.922        2799.268        2803.613        2806.712        2809.811        2812.910        2816.010        2818.625        2821.216        2823.776        2826.310        2828.820        2831.297        2833.742        2836.160        2838.559        2840.939        2843.304        2845.658        2848.005        2850.343        2852.673        2855.132        2857.721        2860.477        2863.382        2866.485        2869.763        2873.218        2876.821        2880.541        2884.352        2888.234        2892.168        2896.348        2900.765        2905.468        2910.422        2915.665        2921.154        2926.916        2932.909        2939.137        2945.559        2952.182        2958.971        2965.924        2973.012        2980.347        2987.912        2995.789        3003.947        3013.981        3026.035        3040.356        3056.390        3073.279        3090.131        3114.313        3139.722        3166.860        3195.000        3224.703        3255.358        3287.523        3320.694        3355.251        3390.763        3427.581        3465.366        3504.338        3544.201        3585.077        3626.751        3669.262        3712.445        3756.304        3800.735        3845.609        3890.822        3936.586        3982.895        4029.621        4076.683        4123.971
1166.421        1220.853        1274.008        1325.847        1376.448        1425.744        1473.657        1520.215        1565.543        1609.730        1652.878        1695.067        1736.264        1776.295        1815.042        1852.463        1888.585        1923.377        1956.761        1988.686        2019.205        2048.447        2076.631        2103.953        2130.535        2156.559        2182.343        2206.969        2231.047        2254.450        2277.276        2299.328        2320.719        2341.184        2360.873        2379.540        2397.393        2414.298        2422.393        2430.488        2438.197        2445.906        2453.332        2460.757        2467.894        2475.030        2481.958        2488.885        2495.609        2502.333        2508.912        2515.490        2521.934        2528.378        2534.727        2541.075        2547.325        2553.574        2559.752        2565.930        2572.021        2578.111        2584.139        2590.168        2596.113        2602.058        2607.944        2613.831        2619.633        2625.436        2631.178        2636.921        2642.575        2648.229        2653.819        2659.410        2664.904        2670.399        2675.824        2681.249        2686.625        2692.002        2697.346        2702.690        2708.018        2713.346        2718.643        2723.940        2728.930        2733.920        2738.910        2743.900        2748.819        2753.737        2758.656        2763.575        2768.479        2773.384        2778.289        2783.194        2787.533        2791.874        2796.213        2800.553        2803.649        2806.746        2809.842        2812.938        2815.551        2818.139        2820.698        2823.229        2825.738        2828.213        2830.657        2833.075        2835.473        2837.852        2840.218        2842.572        2844.918        2847.256        2849.587        2852.046        2854.636        2857.394        2860.300        2863.404        2866.684        2870.140        2873.745        2877.467        2881.279        2885.163        2889.099        2893.281        2897.700        2902.406        2907.363        2912.609        2918.104        2923.871        2929.871        2936.105        2942.534        2949.163        2955.959        2962.920        2970.016        2977.359        2984.933        2992.819        3000.987        3011.034        3023.103        3037.440        3053.494        3070.409        3087.307        3111.542        3137.015        3164.211        3192.407        3222.170        3252.891        3285.100        3318.326        3352.950        3388.532        3425.436        3463.314        3502.367        3542.290        3583.216        3624.937        3667.500        3710.729        3754.646        3799.144        3844.067        3889.304        3935.150        3981.594        4028.443        4075.619        4123.021
1166.699        1221.050        1274.145        1325.928        1376.455        1425.702        1473.559        1520.055        1565.310        1609.438        1652.521        1694.639        1735.752        1775.739        1814.428        1851.778        1887.816        1922.556        1955.917        1987.848        2018.360        2047.583        2075.736        2102.995        2129.485        2155.443        2181.370        2205.924        2229.940        2253.303        2276.116        2298.193        2319.635        2340.172        2359.927        2378.640        2396.530        2413.425        2421.495        2429.564        2437.218        2444.871        2452.220        2459.569        2466.613        2473.656        2480.485        2487.314        2493.948        2500.582        2507.083        2513.584        2519.963        2526.343        2532.634        2538.924        2545.127        2551.329        2557.466        2563.602        2569.660        2575.718        2581.719        2587.719        2593.644        2599.569        2605.440        2611.311        2617.102        2622.894        2628.629        2634.364        2640.013        2645.663        2651.250        2656.838        2662.331        2667.824        2673.247        2678.670        2684.015        2689.361        2694.669        2699.978        2705.274        2710.570        2715.769        2720.967        2725.946        2730.924        2735.903        2740.881        2745.789        2750.696        2755.603        2760.510        2765.410        2770.310        2775.210        2780.111        2784.446        2788.781        2793.117        2797.452        2800.545        2803.639        2806.732        2809.825        2812.436        2815.022        2817.579        2820.110        2822.618        2825.092        2827.535        2829.953        2832.351        2834.730        2837.095        2839.449        2841.796        2844.135        2846.467        2848.927        2851.519        2854.278        2857.187        2860.293        2863.575        2867.035        2870.643        2874.367        2878.182        2882.068        2886.006        2890.191        2894.613        2899.323        2904.284        2909.537        2915.038        2920.813        2926.819        2933.061        2939.498        2946.135        2952.939        2959.908        2967.013        2974.365        2981.949        2989.846        2998.025        3008.086        3020.169        3034.527        3050.604        3067.543        3084.472        3108.761        3134.295        3161.548        3189.807        3219.628        3250.402        3282.669        3315.979        3350.698        3386.383        3423.405        3461.404        3500.553        3540.545        3581.523        3623.298        3665.906        3709.177        3753.142        3797.705        3842.631        3887.819        3933.671        3980.196        4027.159        4074.445        4121.948
1166.769        1220.995        1273.991        1325.691        1376.122        1425.294        1473.085        1519.508        1564.688        1608.754        1651.774        1693.809        1734.853        1774.799        1813.442        1850.726        1886.714        1921.461        1954.888        1986.934        2017.565        2046.816        2074.864        2101.917        2128.202        2154.005        2179.959        2204.388        2228.315        2251.632        2274.439        2296.549        2318.063        2338.680        2358.527        2377.339        2395.331        2412.280        2420.353        2428.427        2436.047        2443.667        2450.956        2458.244        2465.207        2472.169        2478.904        2485.638        2492.188        2498.739        2505.166        2511.593        2517.907        2524.221        2530.451        2536.680        2542.828        2548.977        2555.065        2561.154        2567.173        2573.192        2579.162        2585.133        2591.036        2596.940        2602.797        2608.653        2614.438        2620.222        2625.954        2631.687        2637.337        2642.987        2648.577        2654.168        2659.663        2665.158        2670.583        2676.007        2681.328        2686.649        2691.932        2697.216        2702.505        2707.795        2712.895        2717.994        2722.961        2727.928        2732.896        2737.863        2742.758        2747.654        2752.549        2757.445        2762.340        2767.236        2772.132        2777.027        2781.358        2785.689        2790.021        2794.351        2797.441        2800.531        2803.622        2806.712        2809.322        2811.906        2814.462        2816.991        2819.498        2821.971        2824.414        2826.831        2829.228        2831.607        2833.973        2836.327        2838.675        2841.014        2843.346        2845.807        2848.400        2851.161        2854.071        2857.180        2860.464        2863.927        2867.537        2871.265        2875.083        2878.973        2882.916        2887.104        2891.531        2896.246        2901.213        2906.471        2911.977        2917.759        2923.772        2930.022        2936.468        2943.115        2949.930        2956.911        2964.028        2971.393        2978.990        2986.900        2995.093        3005.166        3017.266        3031.646        3047.752        3064.728        3081.682        3105.998        3131.560        3158.864        3187.184        3217.056        3247.903        3280.270        3313.688        3348.530        3384.257        3421.266        3459.224        3498.296        3538.253        3579.202        3620.981        3663.592        3706.890        3750.892        3795.504        3840.479        3886.017        3932.263        3978.907        4025.960        4073.333        4120.920
1166.674        1220.721        1273.554        1325.111        1375.405        1424.438        1472.115        1518.439        1563.536        1607.521        1650.458        1692.399        1733.371        1773.237        1811.798        1849.011        1884.983        1919.772        1953.370        1985.776        2016.789        2046.196        2074.073        2100.831        2126.815        2152.334        2178.037        2202.278        2226.060        2249.277        2272.023        2294.113        2315.629        2336.271        2356.193        2375.107        2393.212        2410.240        2418.340        2426.441        2434.059        2441.677        2448.947        2456.217        2463.135        2470.054        2476.731        2483.409        2489.899        2496.389        2502.747        2509.106        2515.353        2521.601        2527.762        2533.923        2540.012        2546.101        2552.136        2558.172        2564.152        2570.132        2576.073        2582.015        2587.902        2593.789        2599.639        2605.490        2611.274        2617.058        2622.795        2628.532        2634.186        2639.841        2645.434        2651.028        2656.523        2662.018        2667.440        2672.863        2678.178        2683.493        2688.761        2694.028        2699.308        2704.587        2709.677        2714.768        2719.724        2724.681        2729.637        2734.594        2739.490        2744.386        2749.282        2754.178        2759.121        2764.064        2769.007        2773.951        2778.278        2782.606        2786.933        2791.261        2794.348        2797.436        2800.524        2803.611        2806.219        2808.801        2811.355        2813.883        2816.389        2818.861        2821.302        2823.719        2826.115        2828.494        2830.859        2833.213        2835.561        2837.899        2840.232        2842.694        2845.288        2848.049        2850.960        2854.070        2857.357        2860.821        2864.435        2868.166        2871.988        2875.882        2879.828        2884.021        2888.452        2893.171        2898.142        2903.405        2908.916        2914.702        2920.723        2926.980        2933.435        2940.092        2946.918        2953.911        2961.042        2968.420        2976.030        2983.953        2992.159        3002.245        3014.362        3028.758        3044.897        3061.912        3078.925        3103.268        3128.859        3156.202        3184.570        3214.546        3245.513        3277.984        3311.515        3346.258        3381.709        3418.417        3456.066        3494.924        3534.745        3575.627        3617.384        3660.000        3703.325        3747.363        3792.015        3837.321        3883.610        3930.614        3977.690        4024.881        4072.322        4119.978
1166.758        1220.561        1273.173        1324.523        1374.614        1423.428        1470.930        1517.125        1562.118        1605.991        1648.824        1690.668        1731.538        1771.246        1809.664        1846.785        1882.711        1917.482        1951.280        1984.135        2015.634        2045.282        2073.150        2099.728        2125.441        2150.680        2176.148        2200.165        2223.768        2246.851        2269.503        2291.529        2313.014        2333.688        2353.705        2372.732        2390.955        2408.080        2416.219        2424.359        2431.999        2439.639        2446.915        2454.190        2461.094        2467.997        2474.641        2481.284        2487.717        2494.150        2500.433        2506.715        2512.880        2519.044        2525.120        2531.195        2537.209        2543.223        2549.194        2555.165        2561.097        2567.029        2572.937        2578.844        2584.714        2590.584        2596.430        2602.275        2608.063        2613.850        2619.593        2625.337        2630.997        2636.657        2642.254        2647.852        2653.347        2658.841        2664.261        2669.680        2674.988        2680.296        2685.559        2690.821        2696.100        2701.380        2706.460        2711.541        2716.487        2721.433        2726.379        2731.325        2736.222        2741.118        2746.014        2750.911        2755.902        2760.892        2765.883        2770.874        2775.198        2779.522        2783.846        2788.170        2791.256        2794.341        2797.426        2800.510        2803.115        2805.695        2808.247        2810.772        2813.277        2815.747        2818.188        2820.604        2823.000        2825.378        2827.742        2830.097        2832.444        2834.783        2837.116        2839.579        2842.174        2844.936        2847.849        2850.960        2854.248        2857.713        2861.328        2865.060        2868.885        2872.780        2876.729        2880.925        2885.359        2890.080        2895.055        2900.321        2905.836        2911.628        2917.654        2923.917        2930.378        2937.043        2943.877        2950.880        2958.021        2965.410        2973.030        2980.964        2989.179        2999.277        3011.406        3025.813        3041.951        3058.977        3076.103        3100.506        3126.169        3153.575        3181.932        3211.873        3242.947        3275.853        3309.788        3344.450        3379.678        3416.143        3453.533        3492.278        3531.984        3572.869        3614.615        3657.280        3700.636        3744.744        3789.442        3834.773        3880.823        3927.925        3975.456        4022.843        4070.357        4118.076
1167.398        1220.868        1273.219        1324.323        1374.150        1422.692        1469.969        1516.011        1560.878        1604.629        1647.345        1689.094        1729.809        1769.314        1807.546        1844.547        1880.335        1915.024        1948.902        1981.938        2013.636        2043.514        2071.615        2098.315        2123.986        2149.092        2174.324        2198.118        2221.541        2244.490        2267.044        2289.020        2310.513        2331.255        2351.376        2370.518        2388.861        2406.099        2414.291        2422.482        2430.153        2437.823        2445.109        2452.396        2459.258        2466.121        2472.679        2479.238        2485.558        2491.877        2498.031        2504.185        2510.228        2516.271        2522.233        2528.196        2534.116        2540.037        2545.930        2551.823        2557.702        2563.582        2569.454        2575.327        2581.180        2587.033        2592.870        2598.707        2604.491        2610.275        2616.015        2621.756        2627.412        2633.067        2638.659        2644.250        2649.737        2655.223        2660.633        2666.043        2671.341        2676.638        2681.893        2687.147        2692.445        2697.743        2702.815        2707.888        2712.815        2717.743        2722.671        2727.599        2732.498        2737.398        2742.297        2747.196        2752.259        2757.322        2762.385        2767.448        2771.772        2776.097        2780.422        2784.746        2787.839        2790.933        2794.025        2797.119        2799.737        2802.329        2804.892        2807.429        2809.944        2812.425        2814.875        2817.300        2819.705        2822.092        2824.465        2826.827        2829.181        2831.527        2833.867        2836.336        2838.937        2841.705        2844.622        2847.738        2851.028        2854.496        2858.111        2861.846        2865.673        2869.574        2873.531        2877.735        2882.177        2886.908        2891.893        2897.171        2902.700        2908.504        2914.541        2920.815        2927.287        2933.962        2940.805        2947.816        2954.964        2962.360        2969.986        2977.922        2986.138        2996.245        3008.366        3022.724        3038.799        3055.820        3073.191        3097.653        3123.387        3150.552        3178.451        3208.192        3239.329        3272.604        3306.750        3341.547        3376.979        3413.524        3450.969        3489.725        3529.421        3570.329        3612.091        3654.808        3698.215        3742.397        3787.163        3831.866        3876.990        3923.784        3971.307        4018.812        4066.401        4114.188
1168.819        1221.810        1273.841        1324.667        1374.206        1422.450        1469.478        1515.347        1560.082        1603.710        1646.317        1687.948        1728.491        1767.791        1805.846        1842.689        1878.314        1912.889        1946.612        1979.336        2010.748        2040.637        2069.075        2096.196        2122.177        2147.469        2172.674        2196.409        2219.760        2242.639        2265.132        2287.084        2308.598        2329.380        2349.553        2368.744        2387.150        2404.444        2412.666        2420.888        2428.574        2436.260        2443.551        2450.841        2457.659        2464.478        2470.952        2477.426        2483.643        2489.860        2495.901        2501.942        2507.879        2513.816        2519.682        2525.548        2531.390        2537.233        2543.062        2548.892        2554.730        2560.568        2566.413        2572.259        2578.092        2583.925        2589.745        2595.566        2601.330        2607.094        2612.815        2618.535        2624.169        2629.803        2635.373        2640.943        2646.408        2651.873        2657.264        2662.655        2667.936        2673.217        2678.435        2683.652        2688.879        2694.106        2699.170        2704.234        2709.144        2714.053        2718.963        2723.873        2728.775        2733.677        2738.580        2743.482        2748.617        2753.751        2758.886        2764.021        2768.346        2772.672        2776.997        2781.322        2784.423        2787.524        2790.625        2793.727        2796.350        2798.950        2801.524        2804.073        2806.600        2809.093        2811.555        2813.990        2816.406        2818.802        2821.183        2823.554        2825.916        2828.269        2830.615        2833.091        2835.699        2838.477        2841.405        2844.531        2847.833        2851.311        2854.937        2858.673        2862.495        2866.384        2870.324        2874.514        2878.948        2883.677        2888.668        2893.957        2899.501        2905.328        2911.393        2917.692        2924.181        2930.862        2937.699        2944.693        2951.816        2959.186        2966.783        2974.694        2982.887        2993.008        3005.112        3019.375        3035.353        3052.334        3070.416        3095.339        3121.566        3148.597        3176.195        3206.231        3237.669        3270.536        3304.117        3338.922        3374.573        3411.455        3449.158        3488.154        3527.974        3569.023        3610.839        3653.657        3697.121        3741.406        3786.236        3831.115        3876.325        3922.776        3969.846        4017.316        4064.945        4112.793
1171.039        1223.422        1275.012        1325.513        1374.744        1422.687        1469.448        1515.128        1559.717        1603.224        1645.712        1687.214        1727.584        1766.702        1804.592        1841.291        1876.807        1911.246        1944.539        1976.532        2007.253        2036.881        2065.559        2093.199        2119.744        2145.571        2171.179        2195.119        2218.585        2241.508        2264.008        2285.940        2307.433        2328.169        2348.285        2367.411        2385.756        2402.995        2411.198        2419.401        2427.079        2434.757        2442.050        2449.344        2456.167        2462.990        2469.472        2475.954        2482.177        2488.399        2494.440        2500.480        2506.403        2512.326        2518.171        2524.016        2529.830        2535.643        2541.440        2547.237        2553.029        2558.822        2564.611        2570.401        2576.165        2581.928        2587.671        2593.414        2599.101        2604.788        2610.435        2616.082        2621.653        2627.225        2632.744        2638.262        2643.691        2649.121        2654.487        2659.854        2665.123        2670.392        2675.633        2680.874        2686.175        2691.477        2696.549        2701.620        2706.550        2711.479        2716.409        2721.338        2726.247        2731.156        2736.064        2740.973        2746.009        2751.045        2756.081        2761.117        2765.439        2769.761        2774.083        2778.405        2781.496        2784.587        2787.678        2790.769        2793.377        2795.962        2798.522        2801.057        2803.572        2806.055        2808.509        2810.937        2813.346        2815.736        2818.113        2820.478        2822.836        2825.187        2827.532        2830.013        2832.629        2835.413        2838.344        2841.472        2844.774        2848.250        2851.872        2855.583        2859.366        2863.206        2867.094        2871.252        2875.669        2880.390        2885.372        2890.681        2896.265        2902.132        2908.224        2914.526        2920.997        2927.643        2934.438        2941.385        2948.463        2955.809        2963.403        2971.322        2979.526        2989.744        3001.793        3016.222        3032.036        3048.756        3066.323        3091.665        3118.114        3145.507        3173.793        3204.353        3236.123        3268.841        3302.234        3337.185        3373.139        3410.468        3448.603        3487.952        3528.035        3569.256        3611.173        3654.079        3697.611        3741.973        3786.867        3832.048        3877.409        3923.614        3970.409        4017.782        4065.419        4113.299
1173.705        1225.486        1276.541        1326.626        1375.523        1423.151        1469.656        1515.117        1559.532        1602.886        1645.251        1686.608        1726.802        1765.734        1803.492        1840.091        1875.561        1909.782        1942.480        1973.610        2003.547        2032.773        2061.513        2089.550        2116.658        2143.114        2169.249        2193.555        2217.271        2240.337        2262.913        2284.877        2306.375        2327.082        2347.165        2366.237        2384.536        2401.718        2409.899        2418.081        2425.742        2433.403        2440.691        2447.979        2454.810        2461.641        2468.144        2474.647        2480.881        2487.116        2493.154        2499.191        2505.102        2511.012        2516.836        2522.660        2528.451        2534.242        2540.012        2545.782        2551.529        2557.277        2563.007        2568.737        2574.421        2580.104        2585.758        2591.412        2597.010        2602.609        2608.174        2613.739        2619.245        2624.750        2630.218        2635.685        2641.081        2646.477        2651.824        2657.172        2662.435        2667.699        2672.952        2678.205        2683.527        2688.848        2693.927        2699.006        2703.955        2708.905        2713.854        2718.804        2723.719        2728.634        2733.549        2738.464        2743.401        2748.338        2753.275        2758.212        2762.531        2766.850        2771.168        2775.487        2778.568        2781.649        2784.730        2787.811        2790.406        2792.989        2795.549        2798.084        2800.598        2803.077        2805.525        2807.947        2810.347        2812.730        2815.099        2817.457        2819.808        2822.153        2824.488        2826.960        2829.560        2832.325        2835.237        2838.351        2841.642        2845.113        2848.735        2852.458        2856.275        2860.168        2864.127        2868.369        2872.857        2877.630        2882.649        2887.965        2893.517        2899.331        2905.365        2911.631        2918.098        2924.777        2931.637        2938.674        2945.857        2953.318        2961.022        2969.038        2977.328        2987.575        2999.740        3014.355        3030.524        3047.629        3064.613        3089.110        3114.430        3141.921        3170.712        3201.458        3233.106        3265.950        3299.571        3334.958        3371.351        3409.177        3447.779        3487.527        3527.926        3569.371        3611.438        3654.485        3698.122        3742.603        3787.592        3832.937        3878.496        3924.703        3971.299        4018.570        4066.194        4114.114
1176.319        1227.675        1278.159        1327.750        1376.243        1423.565        1469.801        1515.008        1559.184        1602.349        1644.555        1685.731        1725.712        1764.495        1802.142        1838.679        1874.034        1907.918        1940.045        1970.546        1999.967        2028.919        2057.619        2085.816        2113.253        2140.120        2166.609        2191.261        2215.227        2238.428        2261.072        2283.040        2304.488        2325.116        2345.100        2364.059        2382.242        2399.259        2407.351        2415.442        2422.986        2430.530        2437.690        2444.850        2451.561        2458.272        2464.655        2471.039        2477.151        2483.263        2489.183        2495.103        2500.912        2506.721        2512.454        2518.187        2523.906        2529.625        2535.327        2541.029        2546.716        2552.404        2558.071        2563.739        2569.357        2574.976        2580.576        2586.175        2591.729        2597.281        2602.814        2608.346        2613.825        2619.303        2624.749        2630.195        2635.573        2640.949        2646.278        2651.607        2656.850        2662.093        2667.310        2672.526        2677.689        2682.851        2687.899        2692.948        2697.870        2702.792        2707.714        2712.636        2717.479        2722.321        2727.164        2732.007        2736.768        2741.529        2746.290        2751.052        2755.335        2759.618        2763.902        2768.185        2771.231        2774.278        2777.324        2780.371        2782.959        2785.527        2788.069        2790.585        2793.079        2795.541        2797.975        2800.384        2802.774        2805.149        2807.512        2809.866        2812.215        2814.556        2816.893        2819.375        2821.992        2824.781        2827.722        2830.866        2834.189        2837.695        2841.352        2845.119        2848.983        2852.924        2856.925        2861.205        2865.730        2870.545        2875.612        2880.959        2886.540        2892.401        2898.500        2904.855        2911.425        2918.220        2925.200        2932.361        2939.668        2947.254        2955.082        2963.231        2971.665        2982.142        2994.661        3009.591        3026.128        3043.274        3059.666        3084.153        3109.453        3137.294        3166.433        3197.337        3228.982        3262.182        3296.282        3332.162        3369.001        3407.284        3446.323        3486.489        3527.263        3569.031        3611.371        3654.654        3698.495        3743.165        3788.327        3833.990        3879.887        3926.252        3972.924        4020.219        4067.885        4115.856
1178.764        1229.836        1279.794        1328.836        1376.870        1423.851        1469.774        1514.665        1558.540        1601.457        1643.430        1684.364        1724.153        1762.821        1800.369        1836.774        1871.865        1905.361        1937.159        1967.509        1996.953        2025.947        2054.566        2082.650        2110.044        2136.967        2163.637        2188.406        2212.471        2235.724        2258.382        2280.297        2301.655        2322.169        2342.045        2360.948        2379.128        2396.180        2404.289        2412.399        2419.917        2427.436        2434.523        2441.611        2448.203        2454.795        2461.034        2467.274        2473.232        2479.190        2484.961        2490.731        2496.397        2502.063        2507.661        2513.258        2518.842        2524.426        2529.990        2535.554        2541.112        2546.669        2552.215        2557.761        2563.303        2568.846        2574.414        2579.981        2585.537        2591.093        2596.649        2602.206        2607.711        2613.217        2618.688        2624.160        2629.552        2634.945        2640.281        2645.616        2650.854        2656.091        2661.282        2666.473        2671.664        2676.854        2681.872        2686.890        2691.785        2696.679        2701.573        2706.468        2711.238        2716.009        2720.779        2725.549        2730.135        2734.720        2739.305        2743.891        2748.139        2752.387        2756.635        2760.883        2763.895        2766.906        2769.918        2772.930        2775.488        2778.026        2780.541        2783.033        2785.508        2787.954        2790.374        2792.772        2795.155        2797.524        2799.883        2802.236        2804.583        2806.927        2809.267        2811.754        2814.381        2817.182        2820.137        2823.298        2826.640        2830.165        2833.843        2837.632        2841.511        2845.458        2849.454        2853.722        2858.236        2863.043        2868.108        2873.472        2879.089        2884.991        2891.132        2897.518        2904.106        2910.906        2917.879        2925.025        2932.311        2939.878        2947.695        2955.842        2964.283        2974.829        2987.438        3002.442        3018.981        3036.032        3052.543        3077.353        3103.199        3131.568        3161.109        3192.161        3223.932        3257.528        3292.071        3328.345        3365.526        3404.108        3443.438        3483.862        3524.903        3566.921        3609.519        3653.037        3697.112        3742.014        3787.409        3833.464        3879.817        3926.450        3973.255        4020.641        4068.407        4116.475
1181.247        1232.012        1281.499        1329.989        1377.529        1424.100        1469.646        1514.166        1557.698        1600.301        1641.978        1682.656        1722.292        1760.848        1798.265        1834.453        1869.247        1902.511        1934.347        1965.018        1994.879        2024.054        2052.549        2080.317        2107.349        2133.941        2160.303        2184.816        2208.700        2231.778        2254.249        2276.004        2297.247        2317.766        2337.765        2357.100        2375.965        2393.885        2402.473        2411.062        2418.865        2426.667        2433.866        2441.064        2447.582        2454.099        2460.145        2466.191        2471.808        2477.426        2482.760        2488.095        2493.203        2498.311        2503.274        2508.237        2513.127        2518.017        2522.857        2527.696        2532.880        2538.063        2543.488        2548.912        2554.524        2560.136        2565.897        2571.658        2577.458        2583.258        2589.077        2594.897        2600.619        2606.341        2611.990        2617.639        2623.162        2628.685        2634.116        2639.547        2644.834        2650.121        2655.349        2660.578        2665.771        2670.964        2675.951        2680.938        2685.742        2690.547        2695.351        2700.156        2704.782        2709.408        2714.035        2718.661        2723.114        2727.567        2732.021        2736.474        2740.687        2744.900        2749.113        2753.326        2756.318        2759.311        2762.304        2765.297        2767.839        2770.365        2772.871        2775.356        2777.825        2780.267        2782.684        2785.081        2787.463        2789.832        2792.193        2794.548        2796.898        2799.245        2801.588        2804.082        2806.717        2809.528        2812.495        2815.671        2819.028        2822.570        2826.265        2830.069        2833.960        2837.917        2841.921        2846.200        2850.728        2855.555        2860.642        2866.034        2871.683        2877.619        2883.797        2890.217        2896.836        2903.662        2910.658        2917.822        2925.124        2932.706        2940.537        2948.699        2957.154        2967.725        2980.344        2995.350        3011.870        3028.979        3045.774        3070.833        3097.001        3125.413        3154.875        3185.962        3217.875        3251.624        3286.288        3322.656        3359.902        3398.571        3437.989        3478.573        3519.813        3562.104        3605.000        3648.857        3693.285        3738.554        3784.314        3830.771        3877.497        3924.488        3971.680        4019.359        4067.363        4115.641
1183.975        1234.271        1283.290        1331.250        1378.282        1424.377        1469.492        1513.609        1556.785        1599.050        1640.426        1680.876        1720.377        1758.800        1796.064        1832.047        1866.666        1899.911        1931.974        1963.038        1993.256        2022.567        2050.940        2078.394        2105.012        2131.196        2157.094        2181.238        2204.842        2227.659        2249.873        2271.446        2292.576        2313.140        2333.308        2353.084        2372.596        2391.259        2400.253        2409.249        2417.288        2425.328        2432.628        2439.927        2446.396        2452.865        2458.752        2464.640        2469.957        2475.272        2480.202        2485.131        2489.710        2494.288        2498.634        2502.980        2507.194        2511.407        2515.535        2519.664        2524.519        2529.374        2534.756        2540.138        2545.869        2551.599        2557.568        2563.536        2569.564        2575.592        2581.644        2587.695        2593.601        2599.507        2605.305        2611.102        2616.734        2622.365        2627.878        2633.390        2638.719        2644.048        2649.312        2654.575        2659.825        2665.075        2670.030        2674.985        2679.700        2684.414        2689.129        2693.844        2698.326        2702.808        2707.290        2711.772        2716.094        2720.415        2724.736        2729.057        2733.235        2737.412        2741.590        2745.768        2748.742        2751.716        2754.690        2757.663        2760.195        2762.710        2765.207        2767.686        2770.149        2772.586        2775.001        2777.396        2779.777        2782.146        2784.507        2786.864        2789.217        2791.566        2793.913        2796.412        2799.053        2801.872        2804.848        2808.034        2811.403        2814.957        2818.666        2822.486        2826.394        2830.370        2834.396        2838.697        2843.249        2848.101        2853.214        2858.632        2864.307        2870.269        2876.473        2882.920        2889.566        2896.419        2903.443        2910.634        2917.962        2925.572        2933.431        2941.622        2950.103        2960.711        2973.364        2988.391        3004.937        3022.112        3039.066        3064.209        3090.481        3118.822        3148.129        3179.256        3211.290        3245.066        3279.720        3316.033        3353.204        3391.821        3431.229        3471.905        3513.302        3555.826        3599.014        3643.223        3688.043        3733.723        3779.909        3826.583        3873.386        3920.654        3968.286        4016.346        4064.672        4113.232
1187.014        1236.671        1285.165        1332.612        1379.118        1424.702        1469.349        1513.067        1555.890        1597.843        1638.954        1679.224        1718.569        1756.842        1793.934        1829.760        1864.279        1897.550        1929.741        1960.978        1991.284        2020.551        2048.782        2076.012        2102.344        2128.228        2153.793        2177.710        2201.125        2223.777        2245.841        2267.292        2288.319        2308.808        2328.917        2348.650        2368.135        2386.739        2395.698        2404.656        2412.626        2420.596        2427.814        2435.031        2441.418        2447.805        2453.617        2459.428        2464.676        2469.924        2474.792        2479.661        2484.187        2488.712        2493.010        2497.308        2501.479        2505.651        2509.740        2513.830        2518.649        2523.469        2528.832        2534.195        2539.906        2545.617        2551.564        2557.512        2563.523        2569.535        2575.576        2581.618        2587.518        2593.418        2599.212        2605.006        2610.629        2616.252        2621.753        2627.254        2632.561        2637.868        2643.114        2648.359        2653.595        2658.830        2663.736        2668.643        2673.291        2677.940        2682.589        2687.238        2691.659        2696.081        2700.503        2704.925        2709.191        2713.457        2717.722        2721.988        2726.120        2730.253        2734.385        2738.517        2741.462        2744.406        2747.350        2750.295        2752.803        2755.298        2757.775        2760.237        2762.684        2765.107        2767.509        2769.893        2772.263        2774.623        2776.977        2779.326        2781.673        2784.018        2786.361        2788.857        2791.497        2794.317        2797.294        2800.483        2803.856        2807.417        2811.132        2814.961        2818.878        2822.863        2826.899        2831.212        2835.776        2840.641        2845.767        2851.198        2856.886        2862.863        2869.081        2875.541        2882.201        2889.069        2896.107        2903.313        2910.657        2918.283        2926.159        2934.366        2942.863        2953.496        2966.165        2981.208        2997.749        3014.913        3031.872        3057.040        3083.350        3111.668        3140.921        3171.921        3203.796        3237.432        3271.950        3308.078        3345.050        3383.591        3422.991        3463.770        3505.329        3548.137        3591.675        3636.315        3681.605        3727.788        3774.487        3821.315        3868.127        3915.690        3963.739        4012.212        4060.922        4109.830
1190.364        1239.288        1287.193        1334.103        1380.072        1425.136        1469.320        1512.651        1555.153        1596.837        1637.741        1677.842        1717.021        1755.122        1792.048        1827.729        1862.150        1895.371        1927.527        1958.670        1988.802        2017.863        2045.899        2072.946        2099.096        2124.729        2150.006        2173.811        2197.125        2219.675        2241.641        2263.007        2283.948        2304.350        2324.365        2344.000        2363.374        2381.852        2390.744        2399.635        2407.538        2415.441        2422.598        2429.755        2436.095        2442.435        2448.208        2453.981        2459.198        2464.414        2469.253        2474.092        2478.591        2483.089        2487.360        2491.631        2495.777        2499.922        2503.985        2508.049        2512.850        2517.651        2522.991        2528.332        2534.017        2539.702        2545.622        2551.543        2557.534        2563.524        2569.553        2575.583        2581.473        2587.363        2593.150        2598.938        2604.551        2610.164        2615.651        2621.139        2626.423        2631.706        2636.927        2642.146        2647.366        2652.585        2657.442        2662.300        2666.883        2671.466        2676.048        2680.631        2684.993        2689.355        2693.717        2698.078        2702.289        2706.499        2710.709        2714.919        2719.006        2723.093        2727.180        2731.266        2734.181        2737.096        2740.011        2742.926        2745.412        2747.886        2750.345        2752.789        2755.220        2757.629        2760.019        2762.391        2764.750        2767.101        2769.447        2771.790        2774.132        2776.471        2778.810        2781.304        2783.943        2786.763        2789.742        2792.934        2796.312        2799.878        2803.601        2807.438        2811.365        2815.361        2819.408        2823.734        2828.311        2833.188        2838.327        2843.771        2849.472        2855.461        2861.690        2868.163        2874.836        2881.716        2888.767        2895.987        2903.344        2910.984        2918.873        2927.093        2935.602        2946.245        2958.925        2973.968        2990.508        3007.669        3024.635        3049.775        3076.064        3104.327        3133.517        3164.349        3196.015        3229.457        3263.800        3299.731        3336.523        3375.038        3414.472        3455.395        3497.144        3540.261        3584.156        3629.232        3674.998        3721.693        3768.913        3816.079        3863.177        3911.158        3959.653        4008.556        4057.675        4106.966
