-1.1999988e+03  -1.1157029e+03  -1.0369068e+03  -9.5638302e+02  -8.7526912e+02  -7.9410880e+02  -7.1295129e+02  -6.3179466e+02  -5.5063818e+02  -4.6948170e+02  -3.8832513e+02  -3.0716936e+02  -2.2603200e+02  -1.4499921e+02  -6.4368626e+01   1.4022003e+01   8.4248183e+01   1.4338433e+02   1.9654727e+02   2.5533057e+02   3.0867160e+02   3.6201263e+02   4.1433640e+02   4.6666016e+02   5.1467845e+02   5.6269673e+02   5.9966711e+02   6.3663749e+02   6.6306013e+02   6.8948278e+02   7.0844609e+02   7.2740940e+02   7.4309720e+02   7.5878500e+02   7.7328784e+02   7.8779069e+02   8.0388224e+02   8.1997379e+02   8.3667494e+02   8.5337610e+02   8.7146997e+02   8.8956385e+02   9.0951913e+02   9.2947440e+02   9.5121551e+02   9.7295663e+02   1.0016860e+03   1.0304153e+03   1.0594654e+03   1.0885155e+03   1.1172307e+03   1.1459460e+03   1.1740599e+03   1.2021737e+03   1.2308497e+03   1.2595258e+03   1.2887260e+03   1.3179262e+03   1.3476317e+03   1.3773371e+03   1.4068731e+03   1.4364092e+03   1.4654910e+03   1.4945727e+03   1.5236268e+03   1.5526809e+03   1.5814180e+03   1.6101550e+03   1.6390216e+03   1.6678883e+03   1.6963579e+03   1.7248274e+03   1.7547295e+03   1.7846316e+03   1.8192192e+03   1.8538068e+03   1.8973292e+03   1.9408516e+03   1.9899133e+03   2.0389750e+03   2.0884115e+03   2.1378480e+03   2.1875835e+03   2.2373189e+03   2.2877893e+03   2.3382597e+03   2.3892183e+03   2.4401769e+03   2.4925972e+03   2.5450176e+03   2.5989444e+03   2.6528712e+03
-1.1999987e+03  -1.1162654e+03  -1.0370843e+03  -9.5645823e+02  -8.7535481e+02  -7.9421452e+02  -7.1307545e+02  -6.3193670e+02  -5.5079804e+02  -4.6965939e+02  -3.8852081e+02  -3.0738357e+02  -2.2626435e+02  -1.4524790e+02  -6.4672378e+01   1.3476585e+01   8.3377032e+01   1.4277123e+02   1.9678865e+02   2.5540851e+02   3.0865235e+02   3.6189619e+02   4.1419137e+02   4.6648656e+02   5.1451192e+02   5.6253728e+02   5.9963134e+02   6.3672539e+02   6.6331393e+02   6.8990247e+02   7.0870174e+02   7.2750102e+02   7.4349783e+02   7.5949465e+02   7.7373429e+02   7.8797393e+02   8.0339615e+02   8.1881837e+02   8.3532187e+02   8.5182536e+02   8.7096639e+02   8.9010741e+02   9.0940267e+02   9.2869793e+02   9.5043905e+02   9.7218016e+02   1.0012977e+03   1.0304153e+03   1.0594250e+03   1.0884347e+03   1.1172047e+03   1.1459747e+03   1.1742402e+03   1.2025056e+03   1.2312313e+03   1.2599569e+03   1.2891651e+03   1.3183732e+03   1.3480300e+03   1.3776869e+03   1.4072147e+03   1.4367426e+03   1.4659685e+03   1.4951943e+03   1.5243751e+03   1.5535558e+03   1.5824309e+03   1.6113060e+03   1.6402987e+03   1.6692912e+03   1.6978642e+03   1.7264370e+03   1.7562981e+03   1.7861590e+03   1.8208161e+03   1.8554732e+03   1.8994450e+03   1.9434169e+03   1.9920428e+03   2.0406688e+03   2.0901912e+03   2.1397135e+03   2.1894820e+03   2.2392504e+03   2.2897648e+03   2.3402792e+03   2.3912190e+03   2.4421588e+03   2.4946299e+03   2.5471010e+03   2.6011181e+03   2.6551353e+03
-1.1999986e+03  -1.1175792e+03  -1.0374327e+03  -9.5658000e+02  -8.7549791e+02  -7.9439360e+02  -7.1328614e+02  -6.3217795e+02  -5.5106975e+02  -4.6996157e+02  -3.8885361e+02  -3.0774761e+02  -2.2665865e+02  -1.4566591e+02  -6.5160386e+01   1.2663797e+01   8.2172226e+01   1.4209478e+02   1.9783380e+02   2.5548645e+02   3.0863310e+02   3.6177975e+02   4.1404635e+02   4.6631295e+02   5.1434540e+02   5.6237784e+02   5.9959557e+02   6.3681330e+02   6.6356772e+02   6.9032215e+02   7.0895739e+02   7.2759263e+02   7.4389846e+02   7.6020430e+02   7.7418073e+02   7.8815716e+02   8.0291006e+02   8.1766296e+02   8.3396880e+02   8.5027463e+02   8.7046281e+02   8.9065098e+02   9.0928622e+02   9.2792146e+02   9.4966257e+02   9.7140369e+02   1.0009095e+03   1.0304153e+03   1.0593845e+03   1.0883538e+03   1.1171786e+03   1.1460034e+03   1.1744205e+03   1.2028375e+03   1.2316128e+03   1.2603881e+03   1.2896042e+03   1.3188202e+03   1.3484284e+03   1.3780366e+03   1.4075563e+03   1.4370760e+03   1.4664460e+03   1.4958159e+03   1.5251233e+03   1.5544307e+03   1.5834439e+03   1.6124571e+03   1.6415756e+03   1.6706942e+03   1.6993704e+03   1.7280467e+03   1.7578666e+03   1.7876865e+03   1.8224130e+03   1.8571395e+03   1.9015608e+03   1.9459822e+03   1.9941724e+03   2.0423626e+03   2.0919708e+03   2.1415791e+03   2.1913805e+03   2.2411819e+03   2.2917403e+03   2.3422987e+03   2.3932197e+03   2.4441407e+03   2.4966625e+03   2.5491843e+03   2.6032918e+03   2.6573993e+03
-1.1999985e+03  -1.1193388e+03  -1.0379161e+03  -9.5673611e+02  -8.7568498e+02  -7.9463072e+02  -7.1356564e+02  -6.3249822e+02  -5.5143069e+02  -4.7036318e+02  -3.8929601e+02  -3.0823140e+02  -2.2718228e+02  -1.4622083e+02  -6.5798975e+01   1.1668601e+01   8.0813933e+01   1.4137780e+02   1.9876139e+02   2.5476900e+02   3.0811931e+02   3.6146962e+02   4.1419807e+02   4.6692651e+02   5.1561174e+02   5.6429697e+02   6.0219503e+02   6.4009309e+02   6.6700405e+02   6.9391500e+02   7.1275482e+02   7.3159465e+02   7.4677080e+02   7.6194696e+02   7.7528620e+02   7.8862545e+02   8.0288542e+02   8.1714540e+02   8.3333212e+02   8.4951884e+02   8.6835588e+02   8.8719292e+02   9.0582929e+02   9.2446565e+02   9.4793467e+02   9.7140369e+02   1.0012977e+03   1.0311917e+03   1.0593087e+03   1.0874257e+03   1.1162823e+03   1.1451389e+03   1.1738657e+03   1.2025926e+03   1.2315843e+03   1.2605759e+03   1.2899032e+03   1.3192304e+03   1.3488514e+03   1.3784724e+03   1.4079604e+03   1.4374483e+03   1.4669281e+03   1.4964080e+03   1.5258256e+03   1.5552432e+03   1.5843817e+03   1.6135202e+03   1.6427623e+03   1.6720043e+03   1.7008011e+03   1.7295979e+03   1.7594340e+03   1.7892700e+03   1.8241066e+03   1.8589433e+03   1.9037222e+03   1.9485012e+03   1.9965844e+03   2.0446676e+03   2.0943922e+03   2.1441167e+03   2.1940268e+03   2.2439369e+03   2.2946451e+03   2.3453533e+03   2.3963754e+03   2.4473974e+03   2.4997963e+03   2.5521952e+03   2.6059293e+03   2.6596634e+03
-1.1999984e+03  -1.1212610e+03  -1.0384507e+03  -9.5691463e+02  -8.7590044e+02  -7.9490494e+02  -7.1388947e+02  -6.3286980e+02  -5.5184989e+02  -4.7083001e+02  -3.8981059e+02  -3.0879416e+02  -2.2779133e+02  -1.4686902e+02  -6.6540382e+01   1.0595266e+01   7.9472025e+01   1.4059167e+02   1.9879508e+02   2.5405155e+02   3.0760553e+02   3.6115950e+02   4.1434979e+02   4.6754008e+02   5.1687810e+02   5.6621611e+02   6.0479449e+02   6.4337288e+02   6.7044036e+02   6.9750785e+02   7.1655225e+02   7.3559666e+02   7.4964314e+02   7.6368961e+02   7.7639167e+02   7.8909373e+02   8.0286078e+02   8.1662783e+02   8.3269544e+02   8.4876305e+02   8.6624896e+02   8.8373487e+02   9.0237236e+02   9.2100985e+02   9.4620677e+02   9.7140369e+02   1.0016859e+03   1.0319682e+03   1.0592329e+03   1.0864976e+03   1.1153859e+03   1.1442743e+03   1.1733110e+03   1.2023477e+03   1.2315557e+03   1.2607638e+03   1.2902022e+03   1.3196405e+03   1.3492744e+03   1.3789083e+03   1.4083645e+03   1.4378206e+03   1.4674103e+03   1.4970000e+03   1.5265279e+03   1.5560558e+03   1.5853196e+03   1.6145833e+03   1.6439489e+03   1.6733145e+03   1.7022318e+03   1.7311491e+03   1.7610013e+03   1.7908535e+03   1.8258003e+03   1.8607470e+03   1.9058836e+03   1.9510203e+03   1.9989965e+03   2.0469726e+03   2.0968135e+03   2.1466543e+03   2.1966731e+03   2.2466918e+03   2.2975499e+03   2.3484080e+03   2.3995311e+03   2.4506541e+03   2.5029302e+03   2.5552062e+03   2.6085669e+03   2.6619275e+03
-1.1999984e+03  -1.1228491e+03  -1.0389245e+03  -9.5710951e+02  -8.7613152e+02  -7.9519502e+02  -7.1423205e+02  -6.3326349e+02  -5.5229463e+02  -4.7132582e+02  -3.9035757e+02  -3.0939254e+02  -2.2843958e+02  -1.4756407e+02  -6.7330820e+01   9.5457994e+00   7.8270407e+01   1.3977729e+02   1.9833198e+02   2.5327740e+02   3.0712148e+02   3.6096555e+02   4.1406309e+02   4.6716063e+02   5.1611373e+02   5.6506683e+02   6.0354445e+02   6.4202207e+02   6.6967223e+02   6.9732238e+02   7.1669320e+02   7.3606402e+02   7.5006380e+02   7.6406359e+02   7.7655623e+02   7.8904887e+02   8.0278756e+02   8.1652624e+02   8.3224682e+02   8.4796740e+02   8.6522764e+02   8.8248789e+02   9.0123594e+02   9.1998399e+02   9.4557449e+02   9.7116500e+02   1.0015666e+03   1.0319682e+03   1.0581366e+03   1.0843051e+03   1.1139164e+03   1.1435277e+03   1.1728627e+03   1.2021977e+03   1.2315810e+03   1.2609643e+03   1.2905109e+03   1.3200575e+03   1.3496615e+03   1.3792656e+03   1.4087191e+03   1.4381727e+03   1.4678782e+03   1.4975835e+03   1.5272069e+03   1.5568302e+03   1.5861981e+03   1.6155660e+03   1.6450348e+03   1.6745035e+03   1.7035300e+03   1.7325564e+03   1.7625066e+03   1.7924569e+03   1.8274898e+03   1.8625228e+03   1.9077444e+03   1.9529660e+03   2.0010986e+03   2.0492312e+03   2.0991627e+03   2.1490941e+03   2.1992006e+03   2.2493072e+03   2.3003181e+03   2.3513291e+03   2.4025646e+03   2.4538000e+03   2.5059463e+03   2.5580925e+03   2.6111420e+03   2.6641915e+03
-1.1999983e+03  -1.1235200e+03  -1.0392422e+03  -9.5731902e+02  -8.7636900e+02  -7.9548275e+02  -7.1457077e+02  -6.3365313e+02  -5.5273530e+02  -4.7181760e+02  -3.9090057e+02  -3.0998693e+02  -2.2908508e+02  -1.4826322e+02  -6.8118467e+01   8.6020728e+00   7.7287443e+01   1.3901351e+02   1.9764135e+02   2.5250326e+02   3.0663743e+02   3.6077161e+02   4.1377640e+02   4.6678119e+02   5.1534938e+02   5.6391756e+02   6.0229441e+02   6.4067126e+02   6.6890408e+02   6.9713691e+02   7.1683414e+02   7.3653137e+02   7.5048447e+02   7.6443757e+02   7.7672079e+02   7.8900401e+02   8.0271433e+02   8.1642465e+02   8.3179820e+02   8.4717174e+02   8.6420632e+02   8.8124090e+02   9.0009951e+02   9.1895812e+02   9.4494222e+02   9.7092631e+02   1.0014473e+03   1.0319682e+03   1.0570404e+03   1.0821126e+03   1.1124468e+03   1.1427811e+03   1.1724144e+03   1.2020476e+03   1.2316063e+03   1.2611649e+03   1.2908197e+03   1.3204745e+03   1.3500487e+03   1.3796228e+03   1.4090738e+03   1.4385249e+03   1.4683460e+03   1.4981671e+03   1.5278858e+03   1.5576046e+03   1.5870766e+03   1.6165486e+03   1.6461206e+03   1.6756926e+03   1.7048281e+03   1.7339636e+03   1.7640119e+03   1.7940602e+03   1.8291794e+03   1.8642986e+03   1.9096052e+03   1.9549118e+03   2.0032009e+03   2.0514899e+03   2.1015120e+03   2.1515340e+03   2.2017283e+03   2.2519225e+03   2.3030864e+03   2.3542502e+03   2.4055981e+03   2.4569460e+03   2.5089624e+03   2.5609788e+03   2.6137172e+03   2.6664556e+03
-1.1999982e+03  -1.1233335e+03  -1.0393766e+03  -9.5754074e+02  -8.7660531e+02  -7.9575443e+02  -7.1488818e+02  -6.3401822e+02  -5.5314843e+02  -4.7227891e+02  -3.9141022e+02  -3.1054530e+02  -2.2969398e+02  -1.4893102e+02  -6.8860828e+01   7.8153653e+00   7.6565114e+01   1.3838625e+02   1.9700196e+02   2.5241076e+02   3.0658400e+02   3.6075725e+02   4.1382372e+02   4.6689019e+02   5.1594959e+02   5.6500898e+02   6.0465479e+02   6.4430059e+02   6.7169461e+02   6.9908864e+02   7.1864094e+02   7.3819325e+02   7.5209464e+02   7.6599603e+02   7.7787365e+02   7.8975126e+02   8.0288505e+02   8.1601884e+02   8.3109223e+02   8.4616563e+02   8.6274590e+02   8.7932617e+02   8.9870805e+02   9.1808993e+02   9.4423605e+02   9.7038217e+02   1.0007870e+03   1.0311917e+03   1.0565972e+03   1.0820027e+03   1.1121274e+03   1.1422521e+03   1.1720615e+03   1.2018708e+03   1.2315661e+03   1.2612613e+03   1.2910139e+03   1.3207665e+03   1.3503797e+03   1.3799930e+03   1.4095221e+03   1.4390512e+03   1.4689269e+03   1.4988025e+03   1.5285874e+03   1.5583723e+03   1.5879245e+03   1.6174768e+03   1.6471267e+03   1.6767767e+03   1.7060168e+03   1.7352569e+03   1.7654328e+03   1.7956087e+03   1.8307809e+03   1.8659532e+03   1.9112144e+03   1.9564758e+03   2.0050228e+03   2.0535698e+03   2.1036624e+03   2.1537550e+03   2.2040213e+03   2.2542876e+03   2.3056231e+03   2.3569586e+03   2.4084345e+03   2.4599104e+03   2.5119412e+03   2.5639720e+03   2.6163458e+03   2.6687197e+03
-1.1999981e+03  -1.1222045e+03  -1.0393673e+03  -9.5776690e+02  -8.7683263e+02  -7.9600104e+02  -7.1517273e+02  -6.3434480e+02  -5.5351774e+02  -4.7269118e+02  -3.9186568e+02  -3.1104472e+02  -2.3024174e+02  -1.4954078e+02  -6.9529003e+01   7.2036748e+00   7.6114055e+01   1.3796588e+02   1.9654928e+02   2.5231826e+02   3.0653057e+02   3.6074289e+02   4.1387104e+02   4.6699920e+02   5.1654980e+02   5.6610041e+02   6.0701517e+02   6.4792992e+02   6.7448515e+02   7.0104037e+02   7.2044775e+02   7.3985512e+02   7.5370481e+02   7.6755449e+02   7.7902651e+02   7.9049852e+02   8.0305577e+02   8.1561302e+02   8.3038627e+02   8.4515952e+02   8.6128548e+02   8.7741145e+02   8.9731660e+02   9.1722175e+02   9.4352989e+02   9.6983803e+02   1.0001267e+03   1.0304153e+03   1.0561541e+03   1.0818928e+03   1.1118079e+03   1.1417231e+03   1.1717085e+03   1.2016940e+03   1.2315258e+03   1.2613577e+03   1.2912080e+03   1.3210584e+03   1.3507107e+03   1.3803631e+03   1.4099704e+03   1.4395776e+03   1.4695077e+03   1.4994379e+03   1.5292890e+03   1.5591400e+03   1.5887724e+03   1.6184049e+03   1.6481328e+03   1.6778607e+03   1.7072054e+03   1.7365502e+03   1.7668537e+03   1.7971572e+03   1.8323825e+03   1.8676077e+03   1.9128237e+03   1.9580397e+03   2.0068447e+03   2.0556496e+03   2.1058129e+03   2.1559761e+03   2.2063143e+03   2.2566526e+03   2.3081597e+03   2.3596669e+03   2.4112708e+03   2.4628748e+03   2.5149200e+03   2.5669652e+03   2.6189745e+03   2.6709838e+03
-1.1999980e+03  -1.1209774e+03  -1.0393161e+03  -9.5798333e+02  -8.7704298e+02  -7.9621755e+02  -7.1541816e+02  -6.3462506e+02  -5.5383386e+02  -4.7304341e+02  -3.9225436e+02  -3.1147113e+02  -2.3071270e+02  -1.5007430e+02  -7.0107850e+01   6.7560780e+00   7.5915241e+01   1.3778458e+02   1.9624284e+02   2.5247314e+02   3.0665535e+02   3.6083757e+02   4.1416580e+02   4.6749403e+02   5.1816138e+02   5.6882873e+02   6.1155635e+02   6.5428398e+02   6.8060460e+02   7.0692523e+02   7.2526754e+02   7.4360984e+02   7.5708772e+02   7.7056560e+02   7.8141321e+02   7.9226082e+02   8.0406627e+02   8.1587172e+02   8.2918077e+02   8.4248982e+02   8.5700258e+02   8.7151534e+02   8.9262738e+02   9.1373942e+02   9.4090854e+02   9.6807766e+02   9.9924648e+02   1.0304153e+03   1.0560961e+03   1.0817770e+03   1.1116873e+03   1.1415975e+03   1.1716181e+03   1.2016386e+03   1.2315628e+03   1.2614870e+03   1.2914206e+03   1.3213541e+03   1.3510800e+03   1.3808059e+03   1.4104915e+03   1.4401771e+03   1.4701470e+03   1.5001170e+03   1.5300143e+03   1.5599117e+03   1.5896068e+03   1.6193018e+03   1.6490965e+03   1.6788912e+03   1.7083300e+03   1.7377688e+03   1.7681905e+03   1.7986121e+03   1.8338615e+03   1.8691109e+03   1.9142540e+03   1.9593971e+03   2.0083698e+03   2.0573425e+03   2.1075635e+03   2.1577845e+03   2.2082141e+03   2.2586438e+03   2.3102995e+03   2.3619551e+03   2.4137231e+03   2.4654910e+03   2.5179175e+03   2.5703440e+03   2.6223619e+03   2.6743799e+03
-1.1999979e+03  -1.1204518e+03  -1.0393139e+03  -9.5817757e+02  -8.7723005e+02  -7.9640182e+02  -7.1562221e+02  -6.3485598e+02  -5.5409292e+02  -4.7333088e+02  -3.9257063e+02  -3.1181796e+02  -2.3109865e+02  -1.5052069e+02  -7.0592916e+01   6.4421394e+00   7.5922959e+01   1.3784026e+02   1.9612397e+02   2.5243946e+02   3.0678013e+02   3.6093225e+02   4.1446055e+02   4.6798886e+02   5.1977295e+02   5.7155704e+02   6.1609754e+02   6.6063804e+02   6.8672406e+02   7.1281009e+02   7.3008733e+02   7.4736457e+02   7.6047063e+02   7.7357670e+02   7.8379992e+02   7.9402313e+02   8.0507677e+02   8.1613042e+02   8.2797527e+02   8.3982012e+02   8.5271968e+02   8.6561923e+02   8.8793816e+02   9.1025708e+02   9.3828718e+02   9.6631729e+02   9.9836629e+02   1.0304153e+03   1.0560383e+03   1.0816612e+03   1.1115666e+03   1.1414720e+03   1.1715276e+03   1.2015832e+03   1.2315997e+03   1.2616163e+03   1.2916330e+03   1.3216498e+03   1.3514493e+03   1.3812488e+03   1.4110126e+03   1.4407765e+03   1.4707863e+03   1.5007960e+03   1.5307397e+03   1.5606834e+03   1.5904411e+03   1.6201988e+03   1.6500603e+03   1.6799218e+03   1.7094546e+03   1.7389874e+03   1.7695272e+03   1.8000670e+03   1.8353405e+03   1.8706141e+03   1.9156843e+03   1.9607544e+03   2.0098948e+03   2.0590353e+03   2.1093140e+03   2.1595928e+03   2.2101139e+03   2.2606350e+03   2.3124392e+03   2.3642434e+03   2.4161753e+03   2.4681072e+03   2.5209150e+03   2.5737228e+03   2.6257494e+03   2.6777760e+03
-1.1987256e+03  -1.1204101e+03  -1.0393892e+03  -9.5834747e+02  -8.7739060e+02  -7.9655341e+02  -7.1578514e+02  -6.3503776e+02  -5.5429491e+02  -4.7355332e+02  -3.9281398e+02  -3.1208427e+02  -2.3139722e+02  -1.5087491e+02  -7.0986225e+01   6.2233569e+00   7.6073538e+01   1.3809320e+02   1.9621044e+02   2.5237032e+02   3.0683105e+02   3.6099958e+02   4.1485983e+02   4.6872007e+02   5.2162890e+02   5.7453773e+02   6.1969459e+02   6.6485145e+02   6.9193916e+02   7.1902687e+02   7.3804772e+02   7.5706858e+02   7.7069837e+02   7.8189746e+02   7.9142615e+02   7.9959100e+02   8.0744469e+02   8.1533375e+02   8.2318689e+02   8.3374582e+02   8.4549752e+02   8.6158452e+02   8.8506001e+02   9.0853549e+02   9.3696848e+02   9.6540146e+02   9.9790838e+02   1.0304153e+03   1.0560342e+03   1.0816532e+03   1.1115718e+03   1.1414905e+03   1.1715662e+03   1.2016418e+03   1.2317215e+03   1.2618011e+03   1.2918868e+03   1.3219724e+03   1.3518544e+03   1.3817363e+03   1.4115793e+03   1.4414222e+03   1.4714624e+03   1.5015026e+03   1.5314844e+03   1.5614663e+03   1.5912749e+03   1.6210834e+03   1.6510042e+03   1.6809251e+03   1.7105367e+03   1.7401483e+03   1.7707760e+03   1.8014037e+03   1.8366732e+03   1.8719428e+03   1.9169848e+03   1.9620268e+03   2.0113244e+03   2.0606219e+03   2.1109486e+03   2.1612752e+03   2.2118596e+03   2.2624441e+03   2.3143796e+03   2.3663152e+03   2.4184452e+03   2.4705753e+03   2.5237175e+03   2.5768596e+03   2.6282067e+03   2.6795538e+03
-1.1987256e+03  -1.1206639e+03  -1.0395387e+03  -9.5849860e+02  -8.7752400e+02  -7.9667270e+02  -7.1590850e+02  -6.3517245e+02  -5.5444213e+02  -4.7371324e+02  -3.9298717e+02  -3.1227287e+02  -2.3161023e+02  -1.5113643e+02  -7.1292757e+01   6.0631505e+00   7.6297971e+01   1.3847154e+02   1.9642486e+02   2.5238008e+02   3.0688197e+02   3.6106691e+02   4.1525910e+02   4.6945129e+02   5.2348485e+02   5.7751841e+02   6.2329164e+02   6.6906486e+02   6.9715425e+02   7.2524364e+02   7.4600812e+02   7.6677259e+02   7.7810608e+02   7.8840038e+02   7.9761174e+02   8.0421042e+02   8.0931799e+02   8.1364923e+02   8.1748389e+02   8.2800027e+02   8.4173696e+02   8.5754982e+02   8.8218187e+02   9.0681391e+02   9.3564977e+02   9.6448564e+02   9.9745047e+02   1.0304153e+03   1.0560302e+03   1.0816451e+03   1.1115770e+03   1.1415089e+03   1.1716047e+03   1.2017005e+03   1.2318431e+03   1.2619858e+03   1.2921404e+03   1.3222951e+03   1.3522595e+03   1.3822239e+03   1.4121459e+03   1.4420678e+03   1.4721384e+03   1.5022091e+03   1.5322292e+03   1.5622493e+03   1.5921086e+03   1.6219680e+03   1.6519482e+03   1.6819283e+03   1.7116188e+03   1.7413093e+03   1.7720248e+03   1.8027404e+03   1.8380059e+03   1.8732715e+03   1.9182854e+03   1.9632992e+03   2.0127539e+03   2.0622086e+03   2.1125831e+03   2.1629576e+03   2.2136053e+03   2.2642531e+03   2.3163201e+03   2.3683870e+03   2.4207152e+03   2.4730434e+03   2.5265199e+03   2.5799964e+03   2.6306640e+03   2.6813315e+03
-1.1999979e+03  -1.1210462e+03  -1.0397431e+03  -9.5863797e+02  -8.7763083e+02  -7.9676044e+02  -7.1599437e+02  -6.3526289e+02  -5.5453800e+02  -4.7381467e+02  -3.9309479e+02  -3.1238884e+02  -2.3174240e+02  -1.5130831e+02  -7.1518427e+01   5.9330532e+00   7.6533586e+01   1.3889461e+02   1.9669519e+02   2.5254346e+02   3.0702446e+02   3.6121539e+02   4.1537674e+02   4.6953809e+02   5.2351465e+02   5.7749122e+02   6.2608697e+02   6.7468273e+02   7.0347741e+02   7.3227209e+02   7.4941681e+02   7.6656152e+02   7.7807632e+02   7.8798730e+02   7.9751895e+02   8.0412838e+02   8.0908138e+02   8.1329000e+02   8.1705607e+02   8.2729427e+02   8.4094329e+02   8.5703629e+02   8.8161533e+02   9.0619438e+02   9.3507016e+02   9.6394595e+02   9.9679240e+02   1.0296388e+03   1.0556490e+03   1.0816591e+03   1.1116124e+03   1.1415657e+03   1.1717204e+03   1.2018751e+03   1.2320784e+03   1.2622818e+03   1.2924985e+03   1.3227151e+03   1.3528290e+03   1.3829429e+03   1.4129374e+03   1.4429319e+03   1.4729962e+03   1.5030605e+03   1.5331106e+03   1.5631606e+03   1.5930987e+03   1.6230367e+03   1.6529796e+03   1.6829225e+03   1.7126777e+03   1.7424329e+03   1.7732017e+03   1.8039706e+03   1.8392146e+03   1.8744587e+03   1.9195027e+03   1.9645467e+03   2.0141226e+03   2.0636986e+03   2.1141170e+03   2.1645354e+03   2.2152303e+03   2.2659252e+03   2.3180791e+03   2.3702330e+03   2.4227349e+03   2.4752369e+03   2.5287414e+03   2.5822460e+03   2.6329300e+03   2.6836140e+03
-1.1999979e+03  -1.1214064e+03  -1.0399803e+03  -9.5877090e+02  -8.7771171e+02  -7.9681745e+02  -7.1604491e+02  -6.3531213e+02  -5.5458633e+02  -4.7386218e+02  -3.9314228e+02  -3.1243838e+02  -2.3180028e+02  -1.5139635e+02  -7.1669374e+01   5.8148711e+00   7.6731860e+01   1.3929015e+02   1.9694594e+02   2.5280898e+02   3.0716695e+02   3.6136386e+02   4.1549438e+02   4.6962490e+02   5.2354446e+02   5.7746402e+02   6.2888232e+02   6.8030061e+02   7.0980057e+02   7.3930054e+02   7.5282550e+02   7.6635046e+02   7.7671702e+02   7.8662791e+02   7.9629315e+02   8.0306443e+02   8.0830748e+02   8.1270391e+02   8.1664462e+02   8.2675957e+02   8.4058706e+02   8.5652277e+02   8.8104881e+02   9.0557484e+02   9.3449054e+02   9.6340625e+02   9.9613432e+02   1.0288624e+03   1.0552677e+03   1.0816731e+03   1.1116478e+03   1.1416225e+03   1.1718361e+03   1.2020497e+03   1.2323137e+03   1.2625777e+03   1.2928564e+03   1.3231352e+03   1.3533985e+03   1.3836619e+03   1.4137290e+03   1.4437960e+03   1.4738540e+03   1.5039119e+03   1.5339919e+03   1.5640719e+03   1.5940887e+03   1.6241055e+03   1.6540111e+03   1.6839167e+03   1.7137366e+03   1.7435565e+03   1.7743787e+03   1.8052008e+03   1.8404234e+03   1.8756459e+03   1.9207200e+03   1.9657942e+03   2.0154914e+03   2.0651886e+03   2.1156508e+03   2.1661131e+03   2.2168552e+03   2.2675972e+03   2.3198381e+03   2.3720789e+03   2.4247546e+03   2.4774303e+03   2.5309630e+03   2.5844957e+03   2.6351961e+03   2.6858965e+03
-1.1999881e+03  -1.1216074e+03  -1.0402338e+03  -9.5889938e+02  -8.7776670e+02  -7.9684464e+02  -7.1606221e+02  -6.3532313e+02  -5.5459096e+02  -4.7386051e+02  -3.9313524e+02  -3.1242806e+02  -2.3179144e+02  -1.5140846e+02  -7.1751965e+01   5.6999273e+00   7.6861227e+01   1.3960604e+02   1.9708297e+02   2.5319943e+02   3.0751427e+02   3.6161806e+02   4.1566519e+02   4.6971233e+02   5.2357691e+02   5.7744149e+02   6.2957328e+02   6.8170508e+02   7.1042534e+02   7.3914561e+02   7.5266170e+02   7.6617779e+02   7.7579041e+02   7.8483476e+02   7.9363601e+02   8.0025445e+02   8.0585967e+02   8.1091296e+02   8.1568720e+02   8.2607337e+02   8.4024119e+02   8.5617330e+02   8.8067316e+02   9.0517302e+02   9.3411899e+02   9.6306497e+02   9.9557543e+02   1.0280859e+03   1.0549090e+03   1.0817321e+03   1.1117607e+03   1.1417892e+03   1.1720469e+03   1.2023045e+03   1.2326120e+03   1.2629194e+03   1.2932422e+03   1.3235650e+03   1.3538729e+03   1.3841809e+03   1.4143471e+03   1.4445132e+03   1.4745926e+03   1.5046719e+03   1.5347921e+03   1.5649123e+03   1.5949794e+03   1.6250464e+03   1.6550003e+03   1.6849541e+03   1.7148336e+03   1.7447131e+03   1.7755155e+03   1.8063180e+03   1.8413322e+03   1.8763465e+03   1.9216890e+03   1.9670314e+03   2.0168604e+03   2.0666893e+03   2.1172007e+03   2.1677121e+03   2.2184911e+03   2.2692703e+03   2.3215655e+03   2.3738608e+03   2.4266556e+03   2.4794505e+03   2.5329951e+03   2.5865398e+03   2.6373954e+03   2.6882511e+03
-1.1999782e+03  -1.1215215e+03  -1.0404997e+03  -9.5902099e+02  -8.7779511e+02  -7.9684301e+02  -7.1604821e+02  -6.3529868e+02  -5.5455552e+02  -4.7381419e+02  -3.9307915e+02  -3.1236441e+02  -2.3172382e+02  -1.5135395e+02  -7.1772982e+01   5.5868531e+00   7.6906247e+01   1.3981659e+02   1.9717968e+02   2.5344635e+02   3.0767117e+02   3.6169581e+02   4.1568088e+02   4.6959553e+02   5.2337629e+02   5.7716248e+02   6.2874287e+02   6.7667486e+02   7.0862320e+02   7.3899067e+02   7.5249790e+02   7.6600513e+02   7.7497055e+02   7.8323856e+02   7.9123152e+02   7.9786195e+02   8.0378503e+02   8.0944532e+02   8.1488842e+02   8.2544713e+02   8.3983013e+02   8.5582382e+02   8.8029751e+02   9.0477120e+02   9.3374744e+02   9.6272368e+02   9.9501654e+02   1.0273094e+03   1.0545503e+03   1.0817911e+03   1.1118735e+03   1.1419560e+03   1.1722577e+03   1.2025593e+03   1.2329102e+03   1.2632612e+03   1.2936280e+03   1.3239949e+03   1.3543474e+03   1.3846998e+03   1.4149651e+03   1.4452305e+03   1.4753312e+03   1.5054320e+03   1.5355923e+03   1.5657527e+03   1.5958700e+03   1.6259873e+03   1.6559894e+03   1.6859915e+03   1.7159306e+03   1.7458697e+03   1.7766524e+03   1.8074351e+03   1.8422411e+03   1.8770471e+03   1.9226579e+03   1.9682686e+03   2.0182294e+03   2.0681901e+03   2.1187505e+03   2.1693110e+03   2.2201272e+03   2.2709433e+03   2.3232930e+03   2.3756427e+03   2.4285566e+03   2.4814706e+03   2.5350273e+03   2.5885839e+03   2.6395948e+03   2.6906057e+03
-1.1999683e+03  -1.1213636e+03  -1.0407868e+03  -9.5912904e+02  -8.7779585e+02  -7.9681363e+02  -7.1600477e+02  -6.3524131e+02  -5.5448340e+02  -4.7372747e+02  -3.9297914e+02  -3.1225358e+02  -2.3160531e+02  -1.5124279e+02  -7.1739701e+01   5.4790435e+00   7.6865709e+01   1.3991224e+02   1.9732589e+02   2.5366953e+02   3.0781826e+02   3.6175974e+02   4.1567558e+02   4.6949698e+02   5.2322086e+02   5.7698095e+02   6.2789967e+02   6.7311402e+02   7.0721234e+02   7.3886617e+02   7.5236611e+02   7.6586605e+02   7.7496822e+02   7.8332724e+02   7.9128385e+02   7.9783048e+02   8.0366614e+02   8.0928328e+02   8.1464136e+02   8.2508264e+02   8.3941559e+02   8.5545975e+02   8.7995058e+02   9.0444141e+02   9.3346658e+02   9.6249176e+02   9.9490058e+02   1.0273094e+03   1.0545888e+03   1.0818682e+03   1.1120045e+03   1.1421408e+03   1.1724852e+03   1.2028297e+03   1.2332209e+03   1.2636120e+03   1.2940188e+03   1.3244256e+03   1.3548186e+03   1.3852116e+03   1.4155802e+03   1.4459489e+03   1.4760889e+03   1.5062288e+03   1.5364410e+03   1.5666533e+03   1.5968261e+03   1.6269989e+03   1.6570464e+03   1.6870939e+03   1.7170873e+03   1.7470807e+03   1.7776760e+03   1.8082713e+03   1.8425556e+03   1.8768398e+03   1.9231220e+03   1.9694042e+03   2.0195615e+03   2.0697189e+03   2.1203499e+03   2.1709810e+03   2.2218512e+03   2.2727215e+03   2.3251190e+03   2.3775166e+03   2.4304358e+03   2.4833549e+03   2.5369380e+03   2.5905212e+03   2.6413181e+03   2.6921151e+03
-1.1999585e+03  -1.1213720e+03  -1.0411023e+03  -9.5921516e+02  -8.7776787e+02  -7.9675762e+02  -7.1593355e+02  -6.3515335e+02  -5.5437766e+02  -4.7360420e+02  -3.9283985e+02  -3.1210119e+02  -2.3144329e+02  -1.5108500e+02  -7.1659792e+01   5.3822849e+00   7.6749567e+01   1.3989213e+02   1.9747282e+02   2.5387935e+02   3.0795937e+02   3.6182286e+02   4.1567365e+02   4.6943549e+02   5.2309263e+02   5.7677268e+02   6.2714028e+02   6.7070870e+02   7.0608426e+02   7.3874168e+02   7.5223433e+02   7.6572697e+02   7.7500335e+02   7.8361359e+02   7.9165584e+02   7.9816081e+02   8.0391530e+02   8.0941417e+02   8.1462250e+02   8.2484413e+02   8.3910134e+02   8.5509569e+02   8.7960365e+02   9.0411161e+02   9.3318573e+02   9.6225984e+02   9.9478462e+02   1.0273094e+03   1.0546274e+03   1.0819454e+03   1.1121355e+03   1.1423256e+03   1.1727128e+03   1.2031001e+03   1.2335314e+03   1.2639628e+03   1.2944095e+03   1.3248563e+03   1.3552898e+03   1.3857234e+03   1.4161953e+03   1.4466673e+03   1.4768465e+03   1.5070256e+03   1.5372897e+03   1.5675539e+03   1.5977822e+03   1.6280105e+03   1.6581034e+03   1.6881963e+03   1.7182440e+03   1.7482916e+03   1.7786996e+03   1.8091075e+03   1.8428700e+03   1.8766325e+03   1.9235861e+03   1.9705397e+03   2.0208937e+03   2.0712477e+03   2.1219493e+03   2.1726510e+03   2.2235754e+03   2.2744997e+03   2.3269451e+03   2.3793904e+03   2.4323149e+03   2.4852393e+03   2.5388489e+03   2.5924584e+03   2.6430414e+03   2.6936245e+03
-1.1999486e+03  -1.1215655e+03  -1.0414456e+03  -9.5927215e+02  -8.7771053e+02  -7.9667605e+02  -7.1583604e+02  -6.3503683e+02  -5.5424104e+02  -4.7344782e+02  -3.9266540e+02  -3.1191223e+02  -2.3124447e+02  -1.5089007e+02  -7.1541073e+01   5.3027581e+00   7.6574426e+01   1.3976665e+02   1.9760184e+02   2.5408431e+02   3.0809795e+02   3.6189407e+02   4.1569171e+02   4.6943079e+02   5.2299063e+02   5.7648395e+02   6.2651175e+02   6.6916427e+02   7.0507302e+02   7.3865310e+02   7.5214196e+02   7.6563081e+02   7.7530870e+02   7.8400810e+02   7.9190181e+02   7.9829774e+02   8.0398853e+02   8.0943620e+02   8.1460001e+02   8.2472283e+02   8.3886056e+02   8.5482371e+02   8.7935672e+02   9.0388972e+02   9.3302094e+02   9.6215215e+02   9.9336992e+02   1.0245877e+03   1.0533372e+03   1.0820867e+03   1.1123270e+03   1.1425673e+03   1.1729950e+03   1.2034226e+03   1.2338912e+03   1.2643597e+03   1.2948430e+03   1.3253263e+03   1.3557972e+03   1.3862680e+03   1.4167321e+03   1.4471961e+03   1.4775076e+03   1.5078191e+03   1.5381638e+03   1.5685085e+03   1.5988029e+03   1.6290973e+03   1.6592021e+03   1.6893069e+03   1.7193686e+03   1.7494304e+03   1.7794495e+03   1.8094685e+03   1.8422980e+03   1.8751275e+03   1.9233529e+03   1.9715784e+03   2.0221973e+03   2.0728162e+03   2.1235953e+03   2.1743744e+03   2.2253594e+03   2.2763444e+03   2.3288246e+03   2.3813048e+03   2.4341877e+03   2.4870707e+03   2.5407225e+03   2.5943743e+03   2.6447541e+03   2.6951339e+03
-1.1999387e+03  -1.1219894e+03  -1.0418102e+03  -9.5929493e+02  -8.7762379e+02  -7.9656987e+02  -7.1571351e+02  -6.3489353e+02  -5.5407588e+02  -4.7326126e+02  -3.9245934e+02  -3.1169099e+02  -2.3101470e+02  -1.5066648e+02  -7.1529255e+01   5.0032630e+00   7.5996783e+01   1.3912144e+02   1.9729496e+02   2.5396797e+02   3.0822353e+02   3.6202746e+02   4.1582557e+02   4.6965922e+02   5.2293080e+02   5.7612289e+02   6.2601833e+02   6.6819333e+02   7.0390544e+02   7.3457057e+02   7.5204959e+02   7.6553465e+02   7.7553951e+02   7.8421050e+02   7.9190919e+02   7.9823786e+02   8.0390829e+02   8.0934322e+02   8.1449684e+02   8.2454224e+02   8.3863422e+02   8.5455174e+02   8.7910979e+02   9.0366784e+02   9.3285615e+02   9.6204446e+02   9.9195523e+02   1.0218660e+03   1.0520471e+03   1.0822281e+03   1.1125185e+03   1.1428089e+03   1.1732771e+03   1.2037452e+03   1.2342509e+03   1.2647566e+03   1.2952764e+03   1.3257963e+03   1.3563045e+03   1.3868127e+03   1.4172687e+03   1.4477248e+03   1.4781687e+03   1.5086127e+03   1.5390378e+03   1.5694630e+03   1.5998235e+03   1.6301840e+03   1.6603008e+03   1.6904175e+03   1.7204933e+03   1.7505692e+03   1.7801994e+03   1.8098295e+03   1.8417260e+03   1.8736225e+03   1.9231197e+03   1.9726170e+03   2.0235009e+03   2.0743848e+03   2.1252413e+03   2.1760977e+03   2.2271434e+03   2.2781891e+03   2.3307041e+03   2.3832191e+03   2.4360606e+03   2.4889020e+03   2.5425961e+03   2.5962902e+03   2.6464667e+03   2.6966432e+03
-1.1999289e+03  -1.1224794e+03  -1.0422547e+03  -9.5935915e+02  -8.7750546e+02  -7.9643986e+02  -7.1556700e+02  -6.3472493e+02  -5.5388418e+02  -4.7304701e+02  -3.9222466e+02  -3.1144110e+02  -2.3075889e+02  -1.5042150e+02  -7.1441189e+01   4.8008025e+00   7.5514570e+01   1.3856606e+02   1.9709519e+02   2.5396449e+02   3.0836008e+02   3.6216828e+02   4.1597100e+02   4.6986716e+02   5.2293693e+02   5.7573458e+02   6.2564244e+02   6.6754057e+02   7.0261685e+02   7.3294162e+02   7.5200098e+02   7.6548352e+02   7.7542953e+02   7.8399695e+02   7.9160781e+02   7.9793338e+02   8.0364701e+02   8.0914284e+02   8.1436561e+02   8.2437737e+02   8.3841572e+02   8.5430295e+02   8.7890857e+02   9.0351418e+02   9.3276745e+02   9.6202071e+02   9.9198700e+02   1.0219533e+03   1.0521860e+03   1.0824188e+03   1.1127542e+03   1.1430896e+03   1.1735948e+03   1.2041001e+03   1.2346398e+03   1.2651795e+03   1.2957325e+03   1.3262856e+03   1.3568276e+03   1.3873695e+03   1.4178585e+03   1.4483475e+03   1.4788247e+03   1.5093018e+03   1.5397612e+03   1.5702206e+03   1.6006186e+03   1.6310167e+03   1.6611742e+03   1.6913317e+03   1.7214554e+03   1.7515791e+03   1.7812606e+03   1.8109422e+03   1.8428282e+03   1.8747143e+03   1.9243518e+03   1.9739893e+03   2.0249644e+03   2.0759394e+03   2.1268779e+03   2.1778164e+03   2.2289296e+03   2.2800428e+03   2.3325917e+03   2.3851406e+03   2.4379894e+03   2.4908382e+03   2.5445747e+03   2.5983112e+03   2.6482319e+03   2.6981526e+03
-1.1999190e+03  -1.1224591e+03  -1.0426251e+03  -9.5937150e+02  -8.7737423e+02  -7.9628664e+02  -7.1539730e+02  -6.3453226e+02  -5.5366756e+02  -4.7280711e+02  -3.9196380e+02  -3.1116555e+02  -2.3048104e+02  -1.5016103e+02  -7.1305409e+01   4.6742841e+00   7.5108399e+01   1.3808398e+02   1.9698394e+02   2.5405436e+02   3.0852753e+02   3.6233753e+02   4.1614778e+02   4.7010169e+02   5.2303035e+02   5.7537519e+02   6.2536562e+02   6.6707094e+02   7.0118164e+02   7.3212999e+02   7.5031815e+02   7.6329547e+02   7.7379699e+02   7.8275110e+02   7.9116748e+02   7.9736715e+02   8.0313829e+02   8.0875403e+02   8.1413386e+02   8.2400038e+02   8.3770842e+02   8.5405416e+02   8.7870735e+02   9.0336053e+02   9.3267875e+02   9.6199696e+02   9.9201878e+02   1.0220406e+03   1.0523250e+03   1.0826094e+03   1.1129898e+03   1.1433702e+03   1.1739126e+03   1.2044549e+03   1.2350286e+03   1.2656023e+03   1.2961886e+03   1.3267749e+03   1.3573507e+03   1.3879264e+03   1.4184483e+03   1.4489703e+03   1.4794805e+03   1.5099908e+03   1.5404845e+03   1.5709783e+03   1.6014138e+03   1.6318493e+03   1.6620476e+03   1.6922458e+03   1.7224174e+03   1.7525890e+03   1.7823219e+03   1.8120548e+03   1.8439304e+03   1.8758061e+03   1.9255838e+03   1.9753616e+03   2.0264278e+03   2.0774940e+03   2.1285146e+03   2.1795352e+03   2.2307158e+03   2.2818964e+03   2.3344793e+03   2.3870622e+03   2.4399183e+03   2.4927744e+03   2.5465534e+03   2.6003323e+03   2.6499972e+03   2.6996620e+03
-1.1985646e+03  -1.1221771e+03  -1.0429249e+03  -9.5933674e+02  -8.7722030e+02  -7.9611065e+02  -7.1520505e+02  -6.3431652e+02  -5.5342739e+02  -4.7254323e+02  -3.9167879e+02  -3.1086678e+02  -2.3018432e+02  -1.4988957e+02  -7.1141626e+01   4.6044769e+00   7.4762216e+01   1.3766746e+02   1.9695403e+02   2.5422838e+02   3.0874264e+02   3.6255304e+02   4.1637089e+02   4.7038307e+02   5.2322240e+02   5.7509481e+02   6.2517390e+02   6.6675177e+02   6.9974746e+02   7.2925342e+02   7.4683163e+02   7.6038153e+02   7.7194081e+02   7.8219541e+02   7.9081352e+02   7.9658030e+02   8.0232316e+02   8.0806602e+02   8.1380888e+02   8.1955174e+02   8.3642301e+02   8.5329428e+02   8.7813580e+02   9.0297732e+02   9.3241941e+02   9.6186150e+02   9.9194225e+02   1.0220230e+03   1.0523507e+03   1.0826784e+03   1.1130889e+03   1.1434995e+03   1.1740693e+03   1.2046391e+03   1.2352372e+03   1.2658352e+03   1.2964447e+03   1.3270543e+03   1.3576521e+03   1.3882499e+03   1.4187914e+03   1.4493329e+03   1.4798660e+03   1.5103990e+03   1.5409155e+03   1.5714320e+03   1.6018963e+03   1.6323606e+03   1.6625833e+03   1.6928060e+03   1.7230099e+03   1.7532138e+03   1.7829886e+03   1.8127634e+03   1.8444133e+03   1.8760630e+03   1.9260728e+03   1.9760826e+03   2.0272344e+03   2.0783861e+03   2.1294726e+03   2.1805591e+03   2.2318006e+03   2.2830421e+03   2.3356740e+03   2.3883059e+03   2.4411775e+03   2.4940491e+03   2.5479169e+03   2.6017847e+03   2.6514780e+03   2.7011713e+03
-1.1985646e+03  -1.1221030e+03  -1.0430408e+03  -9.5929633e+02  -8.7712959e+02  -7.9601145e+02  -7.1509789e+02  -6.3419754e+02  -5.5329607e+02  -4.7239999e+02  -3.9152502e+02  -3.1070677e+02  -2.3002773e+02  -1.4974998e+02  -7.1052509e+01   4.5892419e+00   7.4612533e+01   1.3749121e+02   1.9697976e+02   2.5435611e+02   3.0888091e+02   3.6269118e+02   4.1651073e+02   4.7054818e+02   5.2336676e+02   5.7501238e+02   6.2511428e+02   6.6664634e+02   6.9915949e+02   7.2805854e+02   7.4552046e+02   7.5929105e+02   7.7103910e+02   7.8135527e+02   7.9027956e+02   7.9551238e+02   8.0152205e+02   8.0753171e+02   8.1354138e+02   8.1955105e+02   8.3623269e+02   8.5291434e+02   8.7785003e+02   9.0278571e+02   9.3228975e+02   9.6179377e+02   9.9190398e+02   1.0220142e+03   1.0523636e+03   1.0827128e+03   1.1131384e+03   1.1435641e+03   1.1741477e+03   1.2047313e+03   1.2353414e+03   1.2659516e+03   1.2965728e+03   1.3271940e+03   1.3578028e+03   1.3884117e+03   1.4189630e+03   1.4495143e+03   1.4800587e+03   1.5106031e+03   1.5411310e+03   1.5716589e+03   1.6021376e+03   1.6326163e+03   1.6628512e+03   1.6930862e+03   1.7233062e+03   1.7535262e+03   1.7833220e+03   1.8131177e+03   1.8446546e+03   1.8761915e+03   1.9263173e+03   1.9764431e+03   2.0276376e+03   2.0788322e+03   2.1299516e+03   2.1810711e+03   2.2323430e+03   2.2836149e+03   2.3362713e+03   2.3889277e+03   2.4418071e+03   2.4946865e+03   2.5485987e+03   2.6025109e+03   2.6522185e+03   2.7019260e+03
-1.1985646e+03  -1.1220289e+03  -1.0431568e+03  -9.5925593e+02  -8.7703888e+02  -7.9591226e+02  -7.1499074e+02  -6.3407856e+02  -5.5316476e+02  -4.7225674e+02  -3.9137125e+02  -3.1054676e+02  -2.2987114e+02  -1.4961040e+02  -7.0963393e+01   4.5740070e+00   7.4462849e+01   1.3731496e+02   1.9700548e+02   2.5448383e+02   3.0901919e+02   3.6282932e+02   4.1665058e+02   4.7071329e+02   5.2351111e+02   5.7492995e+02   6.2505465e+02   6.6654092e+02   6.9857151e+02   7.2686367e+02   7.4420928e+02   7.5820058e+02   7.7013740e+02   7.8051512e+02   7.8974560e+02   7.9444446e+02   8.0072093e+02   8.0699740e+02   8.1327387e+02   8.1955035e+02   8.3604237e+02   8.5253440e+02   8.7756426e+02   9.0259411e+02   9.3216008e+02   9.6172605e+02   9.9186572e+02   1.0220054e+03   1.0523764e+03   1.0827473e+03   1.1131880e+03   1.1436288e+03   1.1742261e+03   1.2048234e+03   1.2354457e+03   1.2660681e+03   1.2967009e+03   1.3273337e+03   1.3579535e+03   1.3885734e+03   1.4191345e+03   1.4496956e+03   1.4802514e+03   1.5108073e+03   1.5413465e+03   1.5718858e+03   1.6023789e+03   1.6328719e+03   1.6631191e+03   1.6933663e+03   1.7236025e+03   1.7538386e+03   1.7836553e+03   1.8134721e+03   1.8448960e+03   1.8763200e+03   1.9265618e+03   1.9768036e+03   2.0280409e+03   2.0792782e+03   2.1304306e+03   2.1815830e+03   2.2328854e+03   2.2841877e+03   2.3368686e+03   2.3895496e+03   2.4424367e+03   2.4953238e+03   2.5492805e+03   2.6032372e+03   2.6529590e+03   2.7026807e+03
-1.1985646e+03  -1.1219513e+03  -1.0432326e+03  -9.5920605e+02  -8.7694155e+02  -7.9580762e+02  -7.1487088e+02  -6.3394708e+02  -5.5302111e+02  -4.7210147e+02  -3.9120640e+02  -3.1037830e+02  -2.2971234e+02  -1.4947651e+02  -7.0891444e+01   4.5271626e+00   7.4269749e+01   1.3709765e+02   1.9698544e+02   2.5460481e+02   3.0920060e+02   3.6302147e+02   4.1684351e+02   4.7090656e+02   5.2368103e+02   5.7487847e+02   6.2488113e+02   6.6625692e+02   6.9795250e+02   7.2549844e+02   7.4302528e+02   7.5719259e+02   7.6920380e+02   7.7949259e+02   7.8865531e+02   7.9502951e+02   8.0109604e+02   8.0725611e+02   8.1352018e+02   8.2049558e+02   8.3616663e+02   8.5278113e+02   8.7739366e+02   9.0257519e+02   9.3210000e+02   9.6172686e+02   9.9187746e+02   1.0220427e+03   1.0524254e+03   1.0828137e+03   1.1132652e+03   1.1437211e+03   1.1743270e+03   1.2049360e+03   1.2355678e+03   1.2662002e+03   1.2968422e+03   1.3274843e+03   1.3581142e+03   1.3887430e+03   1.4193141e+03   1.4498840e+03   1.4804492e+03   1.5110140e+03   1.5415628e+03   1.5721107e+03   1.6026166e+03   1.6331171e+03   1.6633793e+03   1.6936370e+03   1.7238858e+03   1.7541298e+03   1.7839755e+03   1.8138298e+03   1.8451498e+03   1.8766966e+03   1.9268535e+03   1.9772089e+03   2.0284750e+03   2.0797452e+03   2.1309235e+03   2.1821025e+03   2.2334241e+03   2.2847515e+03   2.3374379e+03   2.3901338e+03   2.4430273e+03   2.4959271e+03   2.5499183e+03   2.6039285e+03   2.6537444e+03   2.7034354e+03
-1.1985646e+03  -1.1219654e+03  -1.0432937e+03  -9.5914104e+02  -8.7683507e+02  -7.9569626e+02  -7.1474674e+02  -6.3381138e+02  -5.5287322e+02  -4.7194189e+02  -3.9103707e+02  -3.1020513e+02  -2.2954867e+02  -1.4933852e+02  -7.0812939e+01   4.4967704e+00   7.4102560e+01   1.3692056e+02   1.9701423e+02   2.5476014e+02   3.0939620e+02   3.6322372e+02   4.1704197e+02   4.7110200e+02   5.2386443e+02   5.7487047e+02   6.2476859e+02   6.6603602e+02   6.9740930e+02   7.2437459e+02   7.4203170e+02   7.5632760e+02   7.6840446e+02   7.7878252e+02   7.8837618e+02   7.9542120e+02   8.0151081e+02   8.0749639e+02   8.1371530e+02   8.2100855e+02   8.3614955e+02   8.5283595e+02   8.7723596e+02   9.0253320e+02   9.3204998e+02   9.6173153e+02   9.9189705e+02   1.0220851e+03   1.0524809e+03   1.0828856e+03   1.1133482e+03   1.1438176e+03   1.1744327e+03   1.2050530e+03   1.2356941e+03   1.2663362e+03   1.2969873e+03   1.3276385e+03   1.3582782e+03   1.3889160e+03   1.4194963e+03   1.4500749e+03   1.4806493e+03   1.5112230e+03   1.5417810e+03   1.5723376e+03   1.6028556e+03   1.6333649e+03   1.6636401e+03   1.6939082e+03   1.7241693e+03   1.7544221e+03   1.7842923e+03   1.8141762e+03   1.8454106e+03   1.8770114e+03   1.9271536e+03   1.9776174e+03   2.0289155e+03   2.0802202e+03   2.1314252e+03   2.1826312e+03   2.2339724e+03   2.2853234e+03   2.3380154e+03   2.3907227e+03   2.4436209e+03   2.4965293e+03   2.5505492e+03   2.6046013e+03   2.6545004e+03   2.7041901e+03
-1.1970279e+03  -1.1220669e+03  -1.0433418e+03  -9.5906375e+02  -8.7672137e+02  -7.9557940e+02  -7.1461878e+02  -6.3367193e+02  -5.5272160e+02  -4.7177856e+02  -3.9086394e+02  -3.1002812e+02  -2.2938132e+02  -1.4919788e+02  -7.0730661e+01   4.4770893e+00   7.3953569e+01   1.3677390e+02   1.9708123e+02   2.5494386e+02   3.0960726e+02   3.6343879e+02   4.1724945e+02   4.7130072e+02   5.2406035e+02   5.7490002e+02   6.2470111e+02   6.6585920e+02   6.9692915e+02   7.2344291e+02   7.4118645e+02   7.5557548e+02   7.6773658e+02   7.7836656e+02   7.8846119e+02   7.9578502e+02   8.0187791e+02   8.0770111e+02   8.1381865e+02   8.2120538e+02   8.3600276e+02   8.5276514e+02   8.7709589e+02   9.0249257e+02   9.3202284e+02   9.6175379e+02   9.9193594e+02   1.0221446e+03   1.0525540e+03   1.0829740e+03   1.1134475e+03   1.1439292e+03   1.1745539e+03   1.2051849e+03   1.2358351e+03   1.2664864e+03   1.2971463e+03   1.3278063e+03   1.3584555e+03   1.3891021e+03   1.4196912e+03   1.4502783e+03   1.4808616e+03   1.5114440e+03   1.5420108e+03   1.5725760e+03   1.6031054e+03   1.6336241e+03   1.6639111e+03   1.6941894e+03   1.7244622e+03   1.7547246e+03   1.7846161e+03   1.8145241e+03   1.8456866e+03   1.8773002e+03   1.9274733e+03   1.9780399e+03   2.0293718e+03   2.0807114e+03   2.1319429e+03   2.1831757e+03   2.2345360e+03   2.2859084e+03   2.3386045e+03   2.3913196e+03   2.4442200e+03   2.4971328e+03   2.5511749e+03   2.6052585e+03   2.6552350e+03   2.7049448e+03
-1.1954913e+03  -1.1222682e+03  -1.0433652e+03  -9.5897325e+02  -8.7659992e+02  -7.9545637e+02  -7.1448575e+02  -6.3352754e+02  -5.5256511e+02  -4.7161037e+02  -3.9068598e+02  -3.0984643e+02  -2.2920992e+02  -1.4905487e+02  -7.0646618e+01   4.4637865e+00   7.3818475e+01   1.3665568e+02   1.9718293e+02   2.5515570e+02   3.0983840e+02   3.6367217e+02   4.1747065e+02   4.7150225e+02   5.2426608e+02   5.7496916e+02   6.2466765e+02   6.6570816e+02   6.9650598e+02   7.2267304e+02   7.4046946e+02   7.5492515e+02   7.6719428e+02   7.7817015e+02   7.8875956e+02   7.9614923e+02   8.0218623e+02   8.0785075e+02   8.1382827e+02   8.2115946e+02   8.3574863e+02   8.5261750e+02   8.7697197e+02   9.0246262e+02   9.3201955e+02   9.6179567e+02   9.9199502e+02   1.0222226e+03   1.0526456e+03   1.0830799e+03   1.1135642e+03   1.1440573e+03   1.1746916e+03   1.2053328e+03   1.2359918e+03   1.2666519e+03   1.2973202e+03   1.3279887e+03   1.3586471e+03   1.3893024e+03   1.4199000e+03   1.4504955e+03   1.4810872e+03   1.5116781e+03   1.5422534e+03   1.5728270e+03   1.6033673e+03   1.6338957e+03   1.6641935e+03   1.6944819e+03   1.7247659e+03   1.7550383e+03   1.7849491e+03   1.8148774e+03   1.8459782e+03   1.8775812e+03   1.9278130e+03   1.9784780e+03   2.0298446e+03   2.0812194e+03   2.1324771e+03   2.1837361e+03   2.2351148e+03   2.2865069e+03   2.3392048e+03   2.3919242e+03   2.4448243e+03   2.4977381e+03   2.5517960e+03   2.6059021e+03   2.6559538e+03   2.7056995e+03
-1.1954913e+03  -1.1225224e+03  -1.0433633e+03  -9.5887225e+02  -8.7647236e+02  -7.9532830e+02  -7.1434847e+02  -6.3337906e+02  -5.5240458e+02  -4.7143820e+02  -3.9050409e+02  -3.0966108e+02  -2.2903552e+02  -1.4891046e+02  -7.0562392e+01   4.4535613e+00   7.3692758e+01   1.3655939e+02   1.9731271e+02   2.5539108e+02   3.1008816e+02   3.6392291e+02   4.1770510e+02   4.7170664e+02   5.2448036e+02   5.7507179e+02   6.2465877e+02   6.6557255e+02   6.9612858e+02   7.2202881e+02   7.3985485e+02   7.5436250e+02   7.6675560e+02   7.7810525e+02   7.8918451e+02   7.9652193e+02   8.0244442e+02   8.0794022e+02   8.1375176e+02   8.2093211e+02   8.3541535e+02   8.5242649e+02   8.7686037e+02   9.0244493e+02   9.3203614e+02   9.6185436e+02   9.9207095e+02   1.0223163e+03   1.0527526e+03   1.0832006e+03   1.1136954e+03   1.1441992e+03   1.1748431e+03   1.2054941e+03   1.2361616e+03   1.2668302e+03   1.2975068e+03   1.3281835e+03   1.3588508e+03   1.3895147e+03   1.4201206e+03   1.4507242e+03   1.4813242e+03   1.5119233e+03   1.5425068e+03   1.5730886e+03   1.6036394e+03   1.6341777e+03   1.6644857e+03   1.6947839e+03   1.7250787e+03   1.7553614e+03   1.7852901e+03   1.8152363e+03   1.8462832e+03   1.8778629e+03   1.9281693e+03   1.9789292e+03   2.0303312e+03   2.0817412e+03   2.1330249e+03   2.1843098e+03   2.2357063e+03   2.2871166e+03   2.3398143e+03   2.3925352e+03   2.4454329e+03   2.4983448e+03   2.5524132e+03   2.6065348e+03   2.6566609e+03   2.7064542e+03
-1.1954913e+03  -1.1227162e+03  -1.0432584e+03  -9.5876092e+02  -8.7634035e+02  -7.9519552e+02  -7.1420404e+02  -6.3322370e+02  -5.5223735e+02  -4.7125951e+02  -3.9031611e+02  -3.0947068e+02  -2.2885832e+02  -1.4876670e+02  -7.0484474e+01   4.4308133e+00   7.3556817e+01   1.3646985e+02   1.9745314e+02   2.5564423e+02   3.1036785e+02   3.6420550e+02   4.1796616e+02   4.7191312e+02   5.2468867e+02   5.7520031e+02   6.2463872e+02   6.6544185e+02   6.9579136e+02   7.2148845e+02   7.3932971e+02   7.5387999e+02   7.6639878e+02   7.7809194e+02   7.8955392e+02   7.9688578e+02   8.0265311e+02   8.0797159e+02   8.1359334e+02   8.2064650e+02   8.3509064e+02   8.5222024e+02   8.7677029e+02   9.0244169e+02   9.3206898e+02   9.6192551e+02   9.9215894e+02   1.0224207e+03   1.0528699e+03   1.0833308e+03   1.1138356e+03   1.1443496e+03   1.1750027e+03   1.2056630e+03   1.2363387e+03   1.2670155e+03   1.2976999e+03   1.3283845e+03   1.3590602e+03   1.3897326e+03   1.4203463e+03   1.4509578e+03   1.4815659e+03   1.5121729e+03   1.5427643e+03   1.5733541e+03   1.6039148e+03   1.6344627e+03   1.6647805e+03   1.6950883e+03   1.7253934e+03   1.7556860e+03   1.7856311e+03   1.8155936e+03   1.8465961e+03   1.8781443e+03   1.9285326e+03   1.9793826e+03   2.0308205e+03   2.0822661e+03   2.1335757e+03   2.1848863e+03   2.2363004e+03   2.2877284e+03   2.3404238e+03   2.3931433e+03   2.4460364e+03   2.4989483e+03   2.5530446e+03   2.6071792e+03   2.6573580e+03   2.7072088e+03
-1.1965158e+03  -1.1228677e+03  -1.0430614e+03  -9.5864236e+02  -8.7620653e+02  -7.9505986e+02  -7.1405386e+02  -6.3306287e+02  -5.5206488e+02  -4.7107581e+02  -3.9012364e+02  -3.0927696e+02  -2.2868014e+02  -1.4862523e+02  -7.0415046e+01   4.3914337e+00   7.3404701e+01   1.3637657e+02   1.9758982e+02   2.5590518e+02   3.1067137e+02   3.6451465e+02   4.1824906e+02   4.7211984e+02   5.2488944e+02   5.7534559e+02   6.2459781e+02   6.6531015e+02   6.9548565e+02   7.2102783e+02   7.3887683e+02   7.5346605e+02   7.6610359e+02   7.7807135e+02   7.8980048e+02   7.9718585e+02   8.0281404e+02   8.0795334e+02   8.1340933e+02   8.2035941e+02   8.3480765e+02   8.5202614e+02   8.7670387e+02   9.0245688e+02   9.3212069e+02   9.6201215e+02   9.9226170e+02   1.0225388e+03   1.0530004e+03   1.0834734e+03   1.1139879e+03   1.1445114e+03   1.1751735e+03   1.2058426e+03   1.2365261e+03   1.2672106e+03   1.2979027e+03   1.3285948e+03   1.3592787e+03   1.3899591e+03   1.4205805e+03   1.4511997e+03   1.4818154e+03   1.5124302e+03   1.5430292e+03   1.5736267e+03   1.6041968e+03   1.6347541e+03   1.6650812e+03   1.6953984e+03   1.7257133e+03   1.7560157e+03   1.7859763e+03   1.8159540e+03   1.8469193e+03   1.8784342e+03   1.9289071e+03   1.9798422e+03   2.0313162e+03   2.0827972e+03   2.1341324e+03   2.1854683e+03   2.2368997e+03   2.2883446e+03   2.3410355e+03   2.3937509e+03   2.4466372e+03   2.4995495e+03   2.5536687e+03   2.6078012e+03   2.6580347e+03   2.7079635e+03
-1.1975402e+03  -1.1229455e+03  -1.0427954e+03  -9.5851278e+02  -8.7606916e+02  -7.9491961e+02  -7.1389776e+02  -6.3289640e+02  -5.5188699e+02  -4.7088688e+02  -3.8992626e+02  -3.0907913e+02  -2.2849948e+02  -1.4848420e+02  -7.0352259e+01   4.3385286e+00   7.3243287e+01   1.3629011e+02   1.9773440e+02   2.5618171e+02   3.1100092e+02   3.6485190e+02   4.1855469e+02   4.7232969e+02   5.2508672e+02   5.7551092e+02   6.2455052e+02   6.6517435e+02   6.9520918e+02   7.2063226e+02   7.3848591e+02   7.5311073e+02   7.6585680e+02   7.7801426e+02   7.8990023e+02   7.9739304e+02   8.0292713e+02   8.0791967e+02   8.1323996e+02   8.2011672e+02   8.3457671e+02   8.5185380e+02   8.7665742e+02   9.0248862e+02   9.3218855e+02   9.6211224e+02   9.9237719e+02   1.0226688e+03   1.0531422e+03   1.0836268e+03   1.1141506e+03   1.1446833e+03   1.1753539e+03   1.2060314e+03   1.2367225e+03   1.2674146e+03   1.2981139e+03   1.3288133e+03   1.3595050e+03   1.3901933e+03   1.4208222e+03   1.4514489e+03   1.4820721e+03   1.5126943e+03   1.5433007e+03   1.5739056e+03   1.6044847e+03   1.6350512e+03   1.6653874e+03   1.6957138e+03   1.7260381e+03   1.7563500e+03   1.7863256e+03   1.8163178e+03   1.8472515e+03   1.8787341e+03   1.9292913e+03   1.9803074e+03   2.0318174e+03   2.0833337e+03   2.1346941e+03   2.1860551e+03   2.2375032e+03   2.2889644e+03   2.3416487e+03   2.3943580e+03   2.4472354e+03   2.5001476e+03   2.5542792e+03   2.6083963e+03   2.6586939e+03   2.7087182e+03
-1.1977339e+03  -1.1229163e+03  -1.0424819e+03  -9.5837423e+02  -8.7592872e+02  -7.9477557e+02  -7.1373712e+02  -6.3272566e+02  -5.5170502e+02  -4.7069399e+02  -3.8972519e+02  -3.0887823e+02  -2.2831697e+02  -1.4834362e+02  -7.0295235e+01   4.2743879e+00   7.3075248e+01   1.3621011e+02   1.9788761e+02   2.5647142e+02   3.1135021e+02   3.6520971e+02   4.1887606e+02   4.7254210e+02   5.2528128e+02   5.7569046e+02   6.2449859e+02   6.6503338e+02   6.9495525e+02   7.2028564e+02   7.3814340e+02   7.5280219e+02   7.6564142e+02   7.7791766e+02   7.8987745e+02   7.9750758e+02   8.0299853e+02   8.0789248e+02   8.1311089e+02   8.1993613e+02   8.3439433e+02   8.5170419e+02   8.7662584e+02   9.0253326e+02   9.3226848e+02   9.6222246e+02   9.9250221e+02   1.0228077e+03   1.0532926e+03   1.0837882e+03   1.1143211e+03   1.1448626e+03   1.1755416e+03   1.2062272e+03   1.2369256e+03   1.2676249e+03   1.2983313e+03   1.3290378e+03   1.3597371e+03   1.3904331e+03   1.4210694e+03   1.4517034e+03   1.4823338e+03   1.5129633e+03   1.5435769e+03   1.5741891e+03   1.6047769e+03   1.6353523e+03   1.6656975e+03   1.6960329e+03   1.7263663e+03   1.7566876e+03   1.7866780e+03   1.8166840e+03   1.8475904e+03   1.8790429e+03   1.9296824e+03   1.9807764e+03   2.0323224e+03   2.0838738e+03   2.1352591e+03   2.1866449e+03   2.2381096e+03   2.2895865e+03   2.3422628e+03   2.3949642e+03   2.4478315e+03   2.5007417e+03   2.5548760e+03   2.6089692e+03   2.6593414e+03   2.7094729e+03
-1.1979276e+03  -1.1227597e+03  -1.0421430e+03  -9.5822536e+02  -8.7578308e+02  -7.9462596e+02  -7.1357150e+02  -6.3255021e+02  -5.5151850e+02  -4.7049663e+02  -3.8951975e+02  -3.0867321e+02  -2.2813089e+02  -1.4820158e+02  -7.0242114e+01   4.2023209e+00   7.2907559e+01   1.3614870e+02   1.9806378e+02   2.5678294e+02   3.1172229e+02   3.6559044e+02   4.1921560e+02   4.7276103e+02   5.2547728e+02   5.7588791e+02   6.2445782e+02   6.6489157e+02   6.9472583e+02   7.1997892e+02   7.3784045e+02   7.5252748e+02   7.6544297e+02   7.7779476e+02   7.8986181e+02   7.9759002e+02   8.0305603e+02   8.0789069e+02   8.1303477e+02   8.1982661e+02   8.3427956e+02   8.5159160e+02   8.7661444e+02   9.0259223e+02   9.3236095e+02   9.6234267e+02   9.9263638e+02   1.0229548e+03   1.0534506e+03   1.0839567e+03   1.1144983e+03   1.1450483e+03   1.1757352e+03   1.2064286e+03   1.2371340e+03   1.2678403e+03   1.2985534e+03   1.3292667e+03   1.3599734e+03   1.3906768e+03   1.4213202e+03   1.4519613e+03   1.4825988e+03   1.5132354e+03   1.5438560e+03   1.5744751e+03   1.6050713e+03   1.6356553e+03   1.6660092e+03   1.6963535e+03   1.7266956e+03   1.7570259e+03   1.7870302e+03   1.8170497e+03   1.8479343e+03   1.8793605e+03   1.9300782e+03   1.9812459e+03   2.0328282e+03   2.0844151e+03   2.1358256e+03   2.1872362e+03   2.2387178e+03   2.2902105e+03   2.3428765e+03   2.3955681e+03   2.4484233e+03   2.5013314e+03   2.5555176e+03   2.6096287e+03   2.6600276e+03   2.7102276e+03
-1.1955982e+03  -1.1225281e+03  -1.0417949e+03  -9.5806838e+02  -8.7563296e+02  -7.9447195e+02  -7.1340223e+02  -6.3237136e+02  -5.5132871e+02  -4.7029606e+02  -3.8931121e+02  -3.0846523e+02  -2.2794217e+02  -1.4805851e+02  -7.0192392e+01   4.1241835e+00   7.2741665e+01   1.3610345e+02   1.9825992e+02   2.5711117e+02   3.1210998e+02   3.6598612e+02   4.1956620e+02   4.7298492e+02   5.2567448e+02   5.7609737e+02   6.2442743e+02   6.6474905e+02   6.9451587e+02   7.1970095e+02   7.3756584e+02   7.5227568e+02   7.6525234e+02   7.7767240e+02   7.8990820e+02   7.9770023e+02   8.0313893e+02   8.0793394e+02   8.1302503e+02   8.1979126e+02   8.3422710e+02   8.5151401e+02   8.7662179e+02   9.0266506e+02   9.3246549e+02   9.6247280e+02   9.9277965e+02   1.0231103e+03   1.0536164e+03   1.0841324e+03   1.1146823e+03   1.1452404e+03   1.1759348e+03   1.2066356e+03   1.2373478e+03   1.2680607e+03   1.2987804e+03   1.3295002e+03   1.3602139e+03   1.3909244e+03   1.4215748e+03   1.4522228e+03   1.4828671e+03   1.5135105e+03   1.5441378e+03   1.5747638e+03   1.6053678e+03   1.6359601e+03   1.6663226e+03   1.6966755e+03   1.7270260e+03   1.7573649e+03   1.7873827e+03   1.8174152e+03   1.8482823e+03   1.8796865e+03   1.9304777e+03   1.9817150e+03   2.0333338e+03   2.0849563e+03   2.1363918e+03   2.1878272e+03   2.2393256e+03   2.2908340e+03   2.3434879e+03   2.3961678e+03   2.4490088e+03   2.5019136e+03   2.5562050e+03   2.6103857e+03   2.6607618e+03   2.7109823e+03
-1.1932687e+03  -1.1222646e+03  -1.0414364e+03  -9.5790060e+02  -8.7547667e+02  -7.9431217e+02  -7.1322864e+02  -6.3218847e+02  -5.5113498e+02  -4.7009160e+02  -3.8909875e+02  -3.0825325e+02  -2.2774933e+02  -1.4791307e+02  -7.0145333e+01   4.0409438e+00   7.2581115e+01   1.3608277e+02   1.9848516e+02   2.5746201e+02   3.1251725e+02   3.6640084e+02   4.1993251e+02   4.7321874e+02   5.2587686e+02   5.7632273e+02   6.2442007e+02   6.6461709e+02   6.9433346e+02   7.1944854e+02   7.3731446e+02   7.5203841e+02   7.6506271e+02   7.7757467e+02   7.9003477e+02   7.9786935e+02   8.0327105e+02   8.0803299e+02   8.1308052e+02   8.1982425e+02   8.3422518e+02   8.5146579e+02   8.7664487e+02   9.0274963e+02   9.3257999e+02   9.6261115e+02   9.9293042e+02   1.0232727e+03   1.0537885e+03   1.0843140e+03   1.1148719e+03   1.1454377e+03   1.1761394e+03   1.2068473e+03   1.2375659e+03   1.2682853e+03   1.2990112e+03   1.3297374e+03   1.3604577e+03   1.3911750e+03   1.4218322e+03   1.4524869e+03   1.4831379e+03   1.5137879e+03   1.5444218e+03   1.5750543e+03   1.6056660e+03   1.6362661e+03   1.6666371e+03   1.6969984e+03   1.7273570e+03   1.7577042e+03   1.7877351e+03   1.8177803e+03   1.8486334e+03   1.8800192e+03   1.9308799e+03   1.9821832e+03   2.0338385e+03   2.0854967e+03   2.1369571e+03   2.1884171e+03   2.2399322e+03   2.2914562e+03   2.3440966e+03   2.3967631e+03   2.4495882e+03   2.5024876e+03   2.5569351e+03   2.6112365e+03   2.6615437e+03   2.7117370e+03
-1.1946856e+03  -1.1219262e+03  -1.0410690e+03  -9.5772403e+02  -8.7531549e+02  -7.9414819e+02  -7.1305201e+02  -6.3200279e+02  -5.5093858e+02  -4.6988451e+02  -3.8888370e+02  -3.0803859e+02  -2.2755370e+02  -1.4776617e+02  -7.0101080e+01   3.9532513e+00   7.2425102e+01   1.3608048e+02   1.9873101e+02   2.5782748e+02   3.1293643e+02   3.6682659e+02   4.2030735e+02   4.7345979e+02   5.2608264e+02   5.7655707e+02   6.2443085e+02   6.6449594e+02   6.9417445e+02   7.1921398e+02   7.3707871e+02   7.5181180e+02   7.6488044e+02   7.7751279e+02   7.9023307e+02   7.9810100e+02   8.0345783e+02   8.0818534e+02   8.1319285e+02   8.1991456e+02   8.3426115e+02   8.5144029e+02   8.7668023e+02   9.0284332e+02   9.3270191e+02   9.6275563e+02   9.9308675e+02   1.0234401e+03   1.0539653e+03   1.0844999e+03   1.1150655e+03   1.1456389e+03   1.1763475e+03   1.2070622e+03   1.2377871e+03   1.2685127e+03   1.2992447e+03   1.3299770e+03   1.3607039e+03   1.3914278e+03   1.4220916e+03   1.4527529e+03   1.4834103e+03   1.5140668e+03   1.5447071e+03   1.5753461e+03   1.6059652e+03   1.6365729e+03   1.6669521e+03   1.6973218e+03   1.7276883e+03   1.7580436e+03   1.7880872e+03   1.8181449e+03   1.8489865e+03   1.8803570e+03   1.9312836e+03   1.9826503e+03   2.0343421e+03   2.0860360e+03   2.1375210e+03   2.1890055e+03   2.2405373e+03   2.2920771e+03   2.3447028e+03   2.3973548e+03   2.4501625e+03   2.5030545e+03   2.5576998e+03   2.6121662e+03   2.6623670e+03   2.7124917e+03
-1.1961024e+03  -1.1214488e+03  -1.0406883e+03  -9.5753481e+02  -8.7514810e+02  -7.9397891e+02  -7.1287158e+02  -6.3181356e+02  -5.5073873e+02  -4.6967401e+02  -3.8866519e+02  -3.0782020e+02  -2.2735387e+02  -1.4761675e+02  -7.0059591e+01   3.8605711e+00   7.2275116e+01   1.3610267e+02   1.9900360e+02   2.5821182e+02   3.1337203e+02   3.6726853e+02   4.2069675e+02   4.7371433e+02   5.2629662e+02   5.7680544e+02   6.2447098e+02   6.6440445e+02   6.9405413e+02   7.1900189e+02   7.3686198e+02   7.5160374e+02   7.6472426e+02   7.7749820e+02   7.9042291e+02   7.9834165e+02   8.0367518e+02   8.0836783e+02   8.1334926e+02   8.2002970e+02   8.3425961e+02   8.5145122e+02   8.7672717e+02   9.0295486e+02   9.3283054e+02   9.6290529e+02   9.9324700e+02   1.0236112e+03   1.0541449e+03   1.0846883e+03   1.1152612e+03   1.1458421e+03   1.1765571e+03   1.2072784e+03   1.2380093e+03   1.2687409e+03   1.2994789e+03   1.3302171e+03   1.3609502e+03   1.3916805e+03   1.4223508e+03   1.4530185e+03   1.4836823e+03   1.5143451e+03   1.5449916e+03   1.5756368e+03   1.6062630e+03   1.6368777e+03   1.6672656e+03   1.6976435e+03   1.7280175e+03   1.7583802e+03   1.7884368e+03   1.8185077e+03   1.8493403e+03   1.8807208e+03   1.9316862e+03   1.9831138e+03   2.0348418e+03   2.0865712e+03   2.1380811e+03   2.1895900e+03   2.2411386e+03   2.2926943e+03   2.3453029e+03   2.3979393e+03   2.4507281e+03   2.5036087e+03   2.5583865e+03   2.6129711e+03   2.6631449e+03   2.7132464e+03
-1.1971105e+03  -1.1209175e+03  -1.0403000e+03  -9.5733522e+02  -8.7497607e+02  -7.9380615e+02  -7.1268863e+02  -6.3162205e+02  -5.5053672e+02  -4.6946140e+02  -3.8844458e+02  -3.0759952e+02  -2.2715143e+02  -1.4746601e+02  -7.0021257e+01   3.7630640e+00   7.2129181e+01   1.3614085e+02   1.9929136e+02   2.5860567e+02   3.1381601e+02   3.6771841e+02   4.2109318e+02   4.7397850e+02   5.2651562e+02   5.7706036e+02   6.2453325e+02   6.6434224e+02   6.9396835e+02   7.1880786e+02   7.3666270e+02   7.5142026e+02   7.6460452e+02   7.7751879e+02   7.9056970e+02   7.9853962e+02   8.0386693e+02   8.0853240e+02   8.1348744e+02   8.2011562e+02   8.3420396e+02   8.5149666e+02   8.7678603e+02   9.0308402e+02   9.3296589e+02   9.6306005e+02   9.9341121e+02   1.0237860e+03   1.0543275e+03   1.0848792e+03   1.1154592e+03   1.1460477e+03   1.1767686e+03   1.2074961e+03   1.2382329e+03   1.2689704e+03   1.2997141e+03   1.3304580e+03   1.3611972e+03   1.3919334e+03   1.4226104e+03   1.4532843e+03   1.4839542e+03   1.5146231e+03   1.5452758e+03   1.5759271e+03   1.6065602e+03   1.6371811e+03   1.6675780e+03   1.6979639e+03   1.7283454e+03   1.7587146e+03   1.7887846e+03   1.8188698e+03   1.8496949e+03   1.8811120e+03   1.9320889e+03   1.9835742e+03   2.0353382e+03   2.0871028e+03   2.1386375e+03   2.1901707e+03   2.2417362e+03   2.2933079e+03   2.3458973e+03   2.3985172e+03   2.4512858e+03   2.5041534e+03   2.5589865e+03   2.6136161e+03   2.6638532e+03   2.7140010e+03
-1.1981186e+03  -1.1204172e+03  -1.0398995e+03  -9.5712119e+02  -8.7479819e+02  -7.9362888e+02  -7.1250239e+02  -6.3142747e+02  -5.5033175e+02  -4.6924587e+02  -3.8822099e+02  -3.0737544e+02  -2.2694488e+02  -1.4731290e+02  -6.9986241e+01   3.6598205e+00   7.1988454e+01   1.3620099e+02   1.9960036e+02   2.5901285e+02   3.1427305e+02   3.6818183e+02   4.2150337e+02   4.7425980e+02   5.2674617e+02   5.7732928e+02   6.2462853e+02   6.6433036e+02   6.9393161e+02   7.1864377e+02   7.3649692e+02   7.5128694e+02   7.6455669e+02   7.7759177e+02   7.9066317e+02   7.9866986e+02   8.0399322e+02   8.0862872e+02   8.1357046e+02   8.2014485e+02   8.3426249e+02   8.5175640e+02   8.7698657e+02   9.0335653e+02   9.3321905e+02   9.6331687e+02   9.9366570e+02   1.0240427e+03   1.0545911e+03   1.0851503e+03   1.1157366e+03   1.1463333e+03   1.1770597e+03   1.2077934e+03   1.2385358e+03   1.2692788e+03   1.3000275e+03   1.3307767e+03   1.3615217e+03   1.3922645e+03   1.4229495e+03   1.4536299e+03   1.4843062e+03   1.5149813e+03   1.5456403e+03   1.5762978e+03   1.6069378e+03   1.6375644e+03   1.6679721e+03   1.6983663e+03   1.7287552e+03   1.7591312e+03   1.7892167e+03   1.8193186e+03   1.8501469e+03   1.8816781e+03   1.9326173e+03   1.9841527e+03   2.0359549e+03   2.0877556e+03   2.1393170e+03   2.1908759e+03   2.2424590e+03   2.2940433e+03   2.3466022e+03   2.3992012e+03   2.4519464e+03   2.5047804e+03   2.5595589e+03   2.6141482e+03   2.6645085e+03   2.7147557e+03
-1.1976146e+03  -1.1199595e+03  -1.0394920e+03  -9.5689563e+02  -8.7461617e+02  -7.9344902e+02  -7.1231416e+02  -6.3123111e+02  -5.5012511e+02  -4.6902876e+02  -3.8799580e+02  -3.0714949e+02  -2.2673600e+02  -1.4715876e+02  -6.9954896e+01   3.5510626e+00   7.1850565e+01   1.3627341e+02   1.9991748e+02   2.5942356e+02   3.1473484e+02   3.6865029e+02   4.2191937e+02   4.7455309e+02   5.2698385e+02   5.7760454e+02   6.2474820e+02   6.6436476e+02   6.9393597e+02   7.1850967e+02   7.3636966e+02   7.5121260e+02   7.6458102e+02   7.7770434e+02   7.9071775e+02   7.9873332e+02   8.0404232e+02   8.0864186e+02   8.1356977e+02   8.2007867e+02   8.3444132e+02   8.5220710e+02   8.7731301e+02   9.0374016e+02   9.3355380e+02   9.6363966e+02   9.9397423e+02   1.0243438e+03   1.0548976e+03   1.0854629e+03   1.1160552e+03   1.1466602e+03   1.1773916e+03   1.2081312e+03   1.2388790e+03   1.2696271e+03   1.3003804e+03   1.3311346e+03   1.3618853e+03   1.3926346e+03   1.4233285e+03   1.4540157e+03   1.4846985e+03   1.5153797e+03   1.5460453e+03   1.5767090e+03   1.6073559e+03   1.6379875e+03   1.6684069e+03   1.6988098e+03   1.7292063e+03   1.7595882e+03   1.7896904e+03   1.8198120e+03   1.8506562e+03   1.8823524e+03   1.9332087e+03   1.9847859e+03   2.0366277e+03   2.0884658e+03   2.1400556e+03   2.1916418e+03   2.2432430e+03   2.2948404e+03   2.3473630e+03   2.3999378e+03   2.4526584e+03   2.5054492e+03   2.5601005e+03   2.6145924e+03   2.6651219e+03   2.7155104e+03
-1.1971105e+03  -1.1195818e+03  -1.0390707e+03  -9.5665534e+02  -8.7442878e+02  -7.9326555e+02  -7.1212325e+02  -6.3103221e+02  -5.4991605e+02  -4.6880926e+02  -3.8776812e+02  -3.0692047e+02  -2.2652312e+02  -1.4700248e+02  -6.9927300e+01   3.4362499e+00   7.1717443e+01   1.3636530e+02   2.0025048e+02   2.5984212e+02   3.1520617e+02   3.6912963e+02   4.2234833e+02   4.7486675e+02   5.2723742e+02   5.7789665e+02   6.2490326e+02   6.6445757e+02   6.9399125e+02   7.1842687e+02   7.3631025e+02   7.5123124e+02   7.6471504e+02   7.7790805e+02   7.9079075e+02   7.9877072e+02   8.0403787e+02   8.0859614e+02   8.1347353e+02   8.2001119e+02   8.3479258e+02   8.5286027e+02   8.7778657e+02   9.0424306e+02   9.3397834e+02   9.6403276e+02   9.9433828e+02   1.0246884e+03   1.0552452e+03   1.0858156e+03   1.1164130e+03   1.1470265e+03   1.1777624e+03   1.2085077e+03   1.2392607e+03   1.2700137e+03   1.3007711e+03   1.3315300e+03   1.3622864e+03   1.3930424e+03   1.4237456e+03   1.4544402e+03   1.4851296e+03   1.5158172e+03   1.5464896e+03   1.5771596e+03   1.6078133e+03   1.6384495e+03   1.6688815e+03   1.6992936e+03   1.7296977e+03   1.7600848e+03   1.7902043e+03   1.8203495e+03   1.8512248e+03   1.8831257e+03   1.9338646e+03   1.9854730e+03   2.0373563e+03   2.0892336e+03   2.1408540e+03   2.1924691e+03   2.2440894e+03   2.2957009e+03   2.3481824e+03   2.4007290e+03   2.4534246e+03   2.5061646e+03   2.5606363e+03   2.6149929e+03   2.6657129e+03   2.7162651e+03
-1.1976146e+03  -1.1192575e+03  -1.0386385e+03  -9.5640387e+02  -8.7423781e+02  -7.9308045e+02  -7.1193098e+02  -6.3083209e+02  -5.4970588e+02  -4.6858872e+02  -3.8753938e+02  -3.0669000e+02  -2.2630820e+02  -1.4684547e+02  -6.9903639e+01   3.3158522e+00   7.1586542e+01   1.3646614e+02   2.0058516e+02   2.6025865e+02   3.1567866e+02   3.6961122e+02   4.2278201e+02   4.7519431e+02   5.2750125e+02   5.7819755e+02   6.2508275e+02   6.6459722e+02   6.9408675e+02   7.1840114e+02   7.3632655e+02   7.5134588e+02   7.6495171e+02   7.7818769e+02   7.9090310e+02   7.9884304e+02   8.0405490e+02   8.0854935e+02   8.1340850e+02   8.2003497e+02   8.3528235e+02   8.5366359e+02   8.7838002e+02   9.0483427e+02   9.3446620e+02   9.6447159e+02   9.9473467e+02   1.0250542e+03   1.0556117e+03   1.0861858e+03   1.1167880e+03   1.1474096e+03   1.1781497e+03   1.2089005e+03   1.2396586e+03   1.2704162e+03   1.3011775e+03   1.3319408e+03   1.3627030e+03   1.3934655e+03   1.4241784e+03   1.4548807e+03   1.4855769e+03   1.5162711e+03   1.5469503e+03   1.5776269e+03   1.6082873e+03   1.6389278e+03   1.6693727e+03   1.6997946e+03   1.7302064e+03   1.7605980e+03   1.7907344e+03   1.8209066e+03   1.8518274e+03   1.8839517e+03   1.9345524e+03   1.9861823e+03   2.0381084e+03   2.0900265e+03   2.1416795e+03   2.1933250e+03   2.2449652e+03   2.2965927e+03   2.3490305e+03   2.4015460e+03   2.4542167e+03   2.5069049e+03   2.5611706e+03   2.6153728e+03   2.6662923e+03   2.7170198e+03
-1.1981186e+03  -1.1189162e+03  -1.0381995e+03  -9.5613642e+02  -8.7404190e+02  -7.9289262e+02  -7.1173675e+02  -6.3063005e+02  -5.4949388e+02  -4.6836640e+02  -3.8730869e+02  -3.0645682e+02  -2.2608943e+02  -1.4668658e+02  -6.9883768e+01   3.1901302e+00   7.1461170e+01   1.3658509e+02   2.0093197e+02   2.6067884e+02   3.1615740e+02   3.7010123e+02   4.2322796e+02   4.7554458e+02   5.2778632e+02   5.7852073e+02   6.2529719e+02   6.6478186e+02   6.9423182e+02   7.1846657e+02   7.3645696e+02   7.5159050e+02   7.6532389e+02   7.7863374e+02   7.9104920e+02   7.9885903e+02   8.0411921e+02   8.0860208e+02   8.1346379e+02   8.2024477e+02   8.3599407e+02   8.5464850e+02   8.7914730e+02   9.0557337e+02   9.3507319e+02   9.6500729e+02   9.9521310e+02   1.0254913e+03   1.0560447e+03   1.0866202e+03   1.1172262e+03   1.1478555e+03   1.1785996e+03   1.2093553e+03   1.2401161e+03   1.2708725e+03   1.3016253e+03   1.3323843e+03   1.3631459e+03   1.3939122e+03   1.4246392e+03   1.4553507e+03   1.4860539e+03   1.5167549e+03   1.5474414e+03   1.5781246e+03   1.6087917e+03   1.6394363e+03   1.6698946e+03   1.7003267e+03   1.7307464e+03   1.7611420e+03   1.7912951e+03   1.8214980e+03   1.8524785e+03   1.8848535e+03   1.9352957e+03   1.9869368e+03   2.0389073e+03   2.0908685e+03   2.1425569e+03   2.1942352e+03   2.2458970e+03   2.2975415e+03   2.3499319e+03   2.4024129e+03   2.4550581e+03   2.5076900e+03   2.5617530e+03   2.6158086e+03   2.6668919e+03   2.7177745e+03
-1.1976146e+03  -1.1185639e+03  -1.0377580e+03  -9.5585728e+02  -8.7384283e+02  -7.9270409e+02  -7.1154186e+02  -6.3042741e+02  -5.4928138e+02  -4.6814364e+02  -3.8707749e+02  -3.0622260e+02  -2.2586891e+02  -1.4652724e+02  -6.9867667e+01   3.0597540e+00   7.1338475e+01   1.3671069e+02   2.0127555e+02   2.6109273e+02   3.1663403e+02   3.7059100e+02   4.2367774e+02   4.7590984e+02   5.2808570e+02   5.7885677e+02   6.2553165e+02   6.6499426e+02   6.9441793e+02   7.1863278e+02   7.3670572e+02   7.5195639e+02   7.6580907e+02   7.7914525e+02   7.9110081e+02   7.9888877e+02   8.0426620e+02   8.0879665e+02   8.1368040e+02   8.2061930e+02   8.3686760e+02   8.5576123e+02   8.8004778e+02   9.0641596e+02   9.3575628e+02   9.6559970e+02   9.9573556e+02   1.0259631e+03   1.0565076e+03   1.0870823e+03   1.1176910e+03   1.1483273e+03   1.1790751e+03   1.2098350e+03   1.2405964e+03   1.2713461e+03   1.3020810e+03   1.3328289e+03   1.3635860e+03   1.3943550e+03   1.4250997e+03   1.4558218e+03   1.4865325e+03   1.5172406e+03   1.5479343e+03   1.5786244e+03   1.6092981e+03   1.6399466e+03   1.6704183e+03   1.7008610e+03   1.7312887e+03   1.7616877e+03   1.7918567e+03   1.8220938e+03   1.8531456e+03   1.8857795e+03   1.9360526e+03   1.9876960e+03   2.0397120e+03   2.0917180e+03   2.1434440e+03   2.1951569e+03   2.2468417e+03   2.2985050e+03   2.3508468e+03   2.4032910e+03   2.4559107e+03   2.5084883e+03   2.5623745e+03   2.6163076e+03   2.6675173e+03   2.7185292e+03
-1.1971105e+03  -1.1182079e+03  -1.0373105e+03  -9.5556408e+02  -8.7363898e+02  -7.9251374e+02  -7.1134586e+02  -6.3022356e+02  -5.4906772e+02  -4.6791976e+02  -3.8684495e+02  -3.0598610e+02  -2.2564476e+02  -1.4636630e+02  -6.9854874e+01   2.9260484e+00   7.1223468e+01   1.3685439e+02   2.0162954e+02   2.6150801e+02   3.1711425e+02   3.7108721e+02   4.2413932e+02   4.7629901e+02   5.2841191e+02   5.7922147e+02   6.2579661e+02   6.6522337e+02   6.9465979e+02   7.1894808e+02   7.3711571e+02   7.5247793e+02   7.6643556e+02   7.7971728e+02   7.9121043e+02   7.9898643e+02   8.0452216e+02   8.0916830e+02   8.1413512e+02   8.2151930e+02   8.3780384e+02   8.5698471e+02   8.8107739e+02   9.0736048e+02   9.3651705e+02   9.6625027e+02   9.9630373e+02   1.0264723e+03   1.0570026e+03   1.0875738e+03   1.1181838e+03   1.1488263e+03   1.1795775e+03   1.2103408e+03   1.2411002e+03   1.2718369e+03   1.3025437e+03   1.3332727e+03   1.3640204e+03   1.3947912e+03   1.4255571e+03   1.4562916e+03   1.4870102e+03   1.5177255e+03   1.5484268e+03   1.5791238e+03   1.6098040e+03   1.6404566e+03   1.6709415e+03   1.7013950e+03   1.7318308e+03   1.7622329e+03   1.7924167e+03   1.8226909e+03   1.8538241e+03   1.8867182e+03   1.9368210e+03   1.9884584e+03   2.0405204e+03   2.0925732e+03   2.1443391e+03   2.1960884e+03   2.2477977e+03   2.2994812e+03   2.3517737e+03   2.4041791e+03   2.4567726e+03   2.5092990e+03   2.5630485e+03   2.6168926e+03   2.6681797e+03   2.7192838e+03
-1.1971105e+03  -1.1178180e+03  -1.0368581e+03  -9.5526136e+02  -8.7343226e+02  -7.9232361e+02  -7.1115001e+02  -6.3001981e+02  -5.4885421e+02  -4.6769609e+02  -3.8661248e+02  -3.0574900e+02  -2.2541923e+02  -1.4620517e+02  -6.9845165e+01   2.7897190e+00   7.1112721e+01   1.3700356e+02   2.0197717e+02   2.6191437e+02   3.1758975e+02   3.7158122e+02   4.2460411e+02   4.7670327e+02   5.2875649e+02   5.7960292e+02   6.2607279e+02   6.6545290e+02   6.9495463e+02   7.1942016e+02   7.3768277e+02   7.5313287e+02   7.6713852e+02   7.8026004e+02   7.9132790e+02   7.9905053e+02   8.0478649e+02   8.0964440e+02   8.1500792e+02   8.2289493e+02   8.3882061e+02   8.5826902e+02   8.8220205e+02   9.0837575e+02   9.3732939e+02   9.6693606e+02   9.9689684e+02   1.0269995e+03   1.0575109e+03   1.0880762e+03   1.1186864e+03   1.1493340e+03   1.1800884e+03   1.2108543e+03   1.2416094e+03   1.2723280e+03   1.3029994e+03   1.3337035e+03   1.3644388e+03   1.3952108e+03   1.4260001e+03   1.4567487e+03   1.4874756e+03   1.5181985e+03   1.5489073e+03   1.5796113e+03   1.6102980e+03   1.6409547e+03   1.6714525e+03   1.7019169e+03   1.7323609e+03   1.7627659e+03   1.7929634e+03   1.8232770e+03   1.8544986e+03   1.8876437e+03   1.9375823e+03   1.9892073e+03   2.0413158e+03   2.0934170e+03   2.1452242e+03   2.1970114e+03   2.2487464e+03   2.3004515e+03   2.3526952e+03   2.4050603e+03   2.4576271e+03   2.5101083e+03   2.5637659e+03   2.6175561e+03   2.6688770e+03   2.7200385e+03
-1.1971105e+03  -1.1173291e+03  -1.0363907e+03  -9.5494438e+02  -8.7322087e+02  -7.9213253e+02  -7.1095399e+02  -6.2981564e+02  -5.4864028e+02  -4.6747202e+02  -3.8637931e+02  -3.0551009e+02  -2.2519041e+02  -1.4604275e+02  -6.9837685e+01   2.6533520e+00   7.1013176e+01   1.3717215e+02   2.0233530e+02   2.6232153e+02   3.1806682e+02   3.7208010e+02   4.2508041e+02   4.7713151e+02   5.2913212e+02   5.8001824e+02   6.2637269e+02   6.6567345e+02   6.9532210e+02   7.2010910e+02   7.3845291e+02   7.5395760e+02   7.6794141e+02   7.8079433e+02   7.9139272e+02   7.9900392e+02   8.0495562e+02   8.1027246e+02   8.1624180e+02   8.2463730e+02   8.3996619e+02   8.5949703e+02   8.8331386e+02   9.0939140e+02   9.3815438e+02   9.6763185e+02   9.9748684e+02   1.0275151e+03   1.0580041e+03   1.0885630e+03   1.1191728e+03   1.1498241e+03   1.1805817e+03   1.2113506e+03   1.2421031e+03   1.2728033e+03   1.3034374e+03   1.3341147e+03   1.3648332e+03   1.3956041e+03   1.4264149e+03   1.4571770e+03   1.4879126e+03   1.5186429e+03   1.5493593e+03   1.5800703e+03   1.6107641e+03   1.6414256e+03   1.6719349e+03   1.7024097e+03   1.7328623e+03   1.7632718e+03   1.7934830e+03   1.8238275e+03   1.8550982e+03   1.8884307e+03   1.9382643e+03   1.9899056e+03   2.0420623e+03   2.0942162e+03   2.1460656e+03   2.1978922e+03   2.2496563e+03   2.3013864e+03   2.3535863e+03   2.4059128e+03   2.4584509e+03   2.5108983e+03   2.5645119e+03   2.6182675e+03   2.6695873e+03   2.7207932e+03
-1.1966064e+03  -1.1167486e+03  -1.0359101e+03  -9.5461745e+02  -8.7300682e+02  -7.9194253e+02  -7.1075900e+02  -6.2961231e+02  -5.4842719e+02  -4.6724882e+02  -3.8614682e+02  -3.0527110e+02  -2.2496067e+02  -1.4588041e+02  -6.9832022e+01   2.5174709e+00   7.0920526e+01   1.3734617e+02   2.0268554e+02   2.6271852e+02   3.1853719e+02   3.7257530e+02   4.2555951e+02   4.7757406e+02   5.2952878e+02   5.8045249e+02   6.2667440e+02   6.6587654e+02   6.9576387e+02   7.2101295e+02   7.3941229e+02   7.5491619e+02   7.6878797e+02   7.8127923e+02   7.9137488e+02   7.9887532e+02   8.0509233e+02   8.1100362e+02   8.1768112e+02   8.2655339e+02   8.4124859e+02   8.6065591e+02   8.8437097e+02   9.1037832e+02   9.3897278e+02   9.6832446e+02   9.9806454e+02   1.0280108e+03   1.0584758e+03   1.0890296e+03   1.1196387e+03   1.1502922e+03   1.1810532e+03   1.2118256e+03   1.2425776e+03   1.2732606e+03   1.3038581e+03   1.3345079e+03   1.3652064e+03   1.3959734e+03   1.4268029e+03   1.4575769e+03   1.4883213e+03   1.5190589e+03   1.5497828e+03   1.5805010e+03   1.6112025e+03   1.6418694e+03   1.6723891e+03   1.7028737e+03   1.7333354e+03   1.7637512e+03   1.7939758e+03   1.8243433e+03   1.8556230e+03   1.8890779e+03   1.9388624e+03   1.9905556e+03   2.0427646e+03   2.0949744e+03   2.1468664e+03   2.1987336e+03   2.2505296e+03   2.3022872e+03   2.3544480e+03   2.4067378e+03   2.4592455e+03   2.5116688e+03   2.5652680e+03   2.6189952e+03   2.6702974e+03   2.7215479e+03
-1.1961024e+03  -1.1161398e+03  -1.0354030e+03  -9.5427840e+02  -8.7278837e+02  -7.9175247e+02  -7.1056486e+02  -6.2940945e+02  -5.4821447e+02  -4.6702598e+02  -3.8591433e+02  -3.0503089e+02  -2.2472819e+02  -1.4571712e+02  -6.9826843e+01   2.3861050e+00   7.0843886e+01   1.3754215e+02   2.0304752e+02   2.6311649e+02   3.1900745e+02   3.7307395e+02   4.2604986e+02   4.7804095e+02   5.2996034e+02   5.8092244e+02   6.2699322e+02   6.6606552e+02   6.9629135e+02   7.2219416e+02   7.4061297e+02   7.5605734e+02   7.6972640e+02   7.8176082e+02   7.9137382e+02   7.9878189e+02   8.0523688e+02   8.1175697e+02   8.1914852e+02   8.2845372e+02   8.4257319e+02   8.6170753e+02   8.8532699e+02   9.1130838e+02   9.3977145e+02   9.6900702e+02   9.9862469e+02   1.0284818e+03   1.0589223e+03   1.0894733e+03   1.1200816e+03   1.1507358e+03   1.1815004e+03   1.2122774e+03   1.2430323e+03   1.2737018e+03   1.3042655e+03   1.3348886e+03   1.3655636e+03   1.3963224e+03   1.4271663e+03   1.4579499e+03   1.4887027e+03   1.5194476e+03   1.5501788e+03   1.5809044e+03   1.6116143e+03   1.6422877e+03   1.6728165e+03   1.7033100e+03   1.7337810e+03   1.7642054e+03   1.7944439e+03   1.8248219e+03   1.8560591e+03   1.8895648e+03   1.9393624e+03   1.9911563e+03   2.0434236e+03   2.0956927e+03   2.1476276e+03   2.1995362e+03   2.2513672e+03   2.3031551e+03   2.3552822e+03   2.4075381e+03   2.4600134e+03   2.5124195e+03   2.5660207e+03   2.6197169e+03   2.6709981e+03   2.7223026e+03
-1.1961024e+03  -1.1155515e+03  -1.0348752e+03  -9.5393138e+02  -8.7256771e+02  -7.9156434e+02  -7.1037265e+02  -6.2920820e+02  -5.4800330e+02  -4.6680469e+02  -3.8568316e+02  -3.0479119e+02  -2.2449541e+02  -1.4555413e+02  -6.9821581e+01   2.2593565e+00   7.0777785e+01   1.3774465e+02   2.0340110e+02   2.6350355e+02   3.1946931e+02   3.7356764e+02   4.2654269e+02   4.7852190e+02   5.3041502e+02   5.8141019e+02   6.2730750e+02   6.6624155e+02   6.9690405e+02   7.2363524e+02   7.4203449e+02   7.5734695e+02   7.7072679e+02   7.8226991e+02   7.9149515e+02   7.9880742e+02   8.0548283e+02   8.1250409e+02   8.2045198e+02   8.3015947e+02   8.4388293e+02   8.6266864e+02   8.8618431e+02   9.1217725e+02   9.4054494e+02   9.6967590e+02   9.9916631e+02   1.0289284e+03   1.0593452e+03   1.0898959e+03   1.1205031e+03   1.1511566e+03   1.1819250e+03   1.2127077e+03   1.2434688e+03   1.2741286e+03   1.3046623e+03   1.3352598e+03   1.3659085e+03   1.3966550e+03   1.4275091e+03   1.4582998e+03   1.4890607e+03   1.5198128e+03   1.5505513e+03   1.5812842e+03   1.6120033e+03   1.6426841e+03   1.6732208e+03   1.7037223e+03   1.7342031e+03   1.7646379e+03   1.7948907e+03   1.8252677e+03   1.8564158e+03   1.8899096e+03   1.9397736e+03   1.9917146e+03   2.0440461e+03   2.0963772e+03   2.1483551e+03   2.2003058e+03   2.2521742e+03   2.3039947e+03   2.3560926e+03   2.4083174e+03   2.4607588e+03   2.5131516e+03   2.5667594e+03   2.6204188e+03   2.6716862e+03   2.7230573e+03
-1.1961024e+03  -1.1150311e+03  -1.0343335e+03  -9.5357144e+02  -8.7234321e+02  -7.9137698e+02  -7.1018238e+02  -6.2900833e+02  -5.4779331e+02  -4.6658454e+02  -3.8545271e+02  -3.0455099e+02  -2.2426068e+02  -1.4539057e+02  -6.9814343e+01   2.1428888e+00   7.0733804e+01   1.3797277e+02   2.0376789e+02   2.6389110e+02   3.1992909e+02   3.7406304e+02   4.2704620e+02   4.7902885e+02   5.3090817e+02   5.8193088e+02   6.2763713e+02   6.6642164e+02   6.9760057e+02   7.2501371e+02   7.4343612e+02   7.5860163e+02   7.7167441e+02   7.8280239e+02   7.9173219e+02   7.9895994e+02   8.0580613e+02   8.1317457e+02   8.2154558e+02   8.3165326e+02   8.4522966e+02   8.6369274e+02   8.8709215e+02   9.1312945e+02   9.4141223e+02   9.7043834e+02   9.9979813e+02   1.0294677e+03   1.0598571e+03   1.0904066e+03   1.1210105e+03   1.1516626e+03   1.1824355e+03   1.2132250e+03   1.2439950e+03   1.2746577e+03   1.3051801e+03   1.3357596e+03   1.3663873e+03   1.3971174e+03   1.4279700e+03   1.4587668e+03   1.4895353e+03   1.5202943e+03   1.5510396e+03   1.5817797e+03   1.6125077e+03   1.6431951e+03   1.6737400e+03   1.7042487e+03   1.7347386e+03   1.7651832e+03   1.7954511e+03   1.8258198e+03   1.8568633e+03   1.8904250e+03   1.9403295e+03   1.9924301e+03   2.0448314e+03   2.0972255e+03   2.1492487e+03   2.2012421e+03   2.2531487e+03   2.3050005e+03   2.3570624e+03   2.4092500e+03   2.4616458e+03   2.5139956e+03   2.5675277e+03   2.6211087e+03   2.6723899e+03   2.7238120e+03
-1.1971105e+03  -1.1146013e+03  -1.0337855e+03  -9.5320327e+02  -8.7211704e+02  -7.9119234e+02  -7.0999494e+02  -6.2881088e+02  -5.4758561e+02  -4.6636663e+02  -3.8522424e+02  -3.0431198e+02  -2.2402647e+02  -1.4522746e+02  -6.9804459e+01   2.0361365e+00   7.0705056e+01   1.3820952e+02   2.0412594e+02   2.6426641e+02   3.2037860e+02   3.7455206e+02   4.2755171e+02   4.7955082e+02   5.3142564e+02   5.8246431e+02   6.2796165e+02   6.6660972e+02   6.9829693e+02   7.2603577e+02   7.4454699e+02   7.5962486e+02   7.7245619e+02   7.8330384e+02   7.9204613e+02   7.9922834e+02   8.0618129e+02   8.1378238e+02   8.2247514e+02   8.3294652e+02   8.4657860e+02   8.6480082e+02   8.8806498e+02   9.1414331e+02   9.4233830e+02   9.7125697e+02   1.0004854e+03   1.0300658e+03   1.0604236e+03   1.0909684e+03   1.1215661e+03   1.1522161e+03   1.1829937e+03   1.2137909e+03   1.2445717e+03   1.2752444e+03   1.3057662e+03   1.3363326e+03   1.3669420e+03   1.3976532e+03   1.4284972e+03   1.4592983e+03   1.4900739e+03   1.5208394e+03   1.5515910e+03   1.5823378e+03   1.6130741e+03   1.6437670e+03   1.6743196e+03   1.7048346e+03   1.7353326e+03   1.7657847e+03   1.7960665e+03   1.8264198e+03   1.8573592e+03   1.8910419e+03   1.9409523e+03   1.9932138e+03   2.0456887e+03   2.0981468e+03   2.1502174e+03   2.2022541e+03   2.2541992e+03   2.3060807e+03   2.3581020e+03   2.4102481e+03   2.4625899e+03   2.5148766e+03   2.5682749e+03   2.6217532e+03   2.6730721e+03   2.7245667e+03
-1.1981186e+03  -1.1142883e+03  -1.0332412e+03  -9.5282437e+02  -8.7188740e+02  -7.9100927e+02  -7.0981049e+02  -6.2861575e+02  -5.4737992e+02  -4.6615062e+02  -3.8499725e+02  -3.0407337e+02  -2.2379140e+02  -1.4506410e+02  -6.9789383e+01   1.9466047e+00   7.0705892e+01   1.3847658e+02   2.0449795e+02   2.6463979e+02   3.2082314e+02   3.7504023e+02   4.2806670e+02   4.8010171e+02   5.3198443e+02   5.8302358e+02   6.2830542e+02   6.6683556e+02   6.9893902e+02   7.2668025e+02   7.4530348e+02   7.6036868e+02   7.7307535e+02   7.8382140e+02   7.9248287e+02   7.9963607e+02   8.0667146e+02   8.1443210e+02   8.2334236e+02   8.3410535e+02   8.4788809e+02   8.6600290e+02   8.8914371e+02   9.1524367e+02   9.4334062e+02   9.7214567e+02   1.0012428e+03   1.0307374e+03   1.0610580e+03   1.0915926e+03   1.1221808e+03   1.1528277e+03   1.1836101e+03   1.2144154e+03   1.2452079e+03   1.2758964e+03   1.3064267e+03   1.3369853e+03   1.3675796e+03   1.3982708e+03   1.4291007e+03   1.4599041e+03   1.4906860e+03   1.5214574e+03   1.5522146e+03   1.5829673e+03   1.6137108e+03   1.6444076e+03   1.6749672e+03   1.7054878e+03   1.7359922e+03   1.7664490e+03   1.7967431e+03   1.8270773e+03   1.8579289e+03   1.8917843e+03   1.9416610e+03   1.9940713e+03   2.0466236e+03   2.0991470e+03   2.1512673e+03   2.2033481e+03   2.2553314e+03   2.3072397e+03   2.3592145e+03   2.4113133e+03   2.4635913e+03   2.5157912e+03   2.5689941e+03   2.6223432e+03   2.6737454e+03   2.7253214e+03
-1.1981186e+03  -1.1140364e+03  -1.0327081e+03  -9.5244015e+02  -8.7165657e+02  -7.9082966e+02  -7.0962976e+02  -6.2842387e+02  -5.4717723e+02  -4.6593753e+02  -3.8477289e+02  -3.0383677e+02  -2.2355786e+02  -1.4490122e+02  -6.9768421e+01   1.8728115e+00   7.0727754e+01   1.3875520e+02   2.0486015e+02   2.6499813e+02   3.2125498e+02   3.7552016e+02   4.2858289e+02   4.8066941e+02   5.3256729e+02   5.8358706e+02   6.2864674e+02   6.6707508e+02   6.9945855e+02   7.2700359e+02   7.4575670e+02   7.6088179e+02   7.7359804e+02   7.8438715e+02   7.9305408e+02   8.0020713e+02   8.0730263e+02   8.1514502e+02   8.2418450e+02   8.3516166e+02   8.4913814e+02   8.6726309e+02   8.9031071e+02   9.1640675e+02   9.4439328e+02   9.7307878e+02   1.0020460e+03   1.0314570e+03   1.0617357e+03   1.0922541e+03   1.1228297e+03   1.1534726e+03   1.1842598e+03   1.2150737e+03   1.2458783e+03   1.2765839e+03   1.3071261e+03   1.3376795e+03   1.3682607e+03   1.3989328e+03   1.4297467e+03   1.4605506e+03   1.4913381e+03   1.5221146e+03   1.5528768e+03   1.5836347e+03   1.6143842e+03   1.6450834e+03   1.6756490e+03   1.7061743e+03   1.7366836e+03   1.7671421e+03   1.7974454e+03   1.8277580e+03   1.8585437e+03   1.8925963e+03   1.9424126e+03   1.9949571e+03   2.0475895e+03   2.1001797e+03   2.1523515e+03   2.2044770e+03   2.2564982e+03   2.3084301e+03   2.3603536e+03   2.4124002e+03   2.4646070e+03   2.5167028e+03   2.5696677e+03   2.6228704e+03   2.6744313e+03   2.7260760e+03
-1.1981186e+03  -1.1137956e+03  -1.0321933e+03  -9.5204806e+02  -8.7142291e+02  -7.9065236e+02  -7.0945304e+02  -6.2823523e+02  -5.4697739e+02  -4.6572711e+02  -3.8455081e+02  -3.0360164e+02  -2.2332487e+02  -1.4473835e+02  -6.9738301e+01   1.8243153e+00   7.0788046e+01   1.3906959e+02   2.0523567e+02   2.6534946e+02   3.2167766e+02   3.7599568e+02   4.2910633e+02   4.8126840e+02   5.3319242e+02   5.8416728e+02   6.2900891e+02   6.6733628e+02   6.9985975e+02   7.2712231e+02   7.4601405e+02   7.6125518e+02   7.7407746e+02   7.8499279e+02   7.9372151e+02   8.0091299e+02   8.0804856e+02   8.1592463e+02   8.2503016e+02   8.3619802e+02   8.5039755e+02   8.6863717e+02   8.9161576e+02   9.1768135e+02   9.4553494e+02   9.7409385e+02   1.0029351e+03   1.0322726e+03   1.0624951e+03   1.0929908e+03   1.1235497e+03   1.1541887e+03   1.1849782e+03   1.2157995e+03   1.2466141e+03   1.2773350e+03   1.3078914e+03   1.3384399e+03   1.3690095e+03   1.3996640e+03   1.4304601e+03   1.4612635e+03   1.4920554e+03   1.5228360e+03   1.5536024e+03   1.5843644e+03   1.6151180e+03   1.6458174e+03   1.6763889e+03   1.7069175e+03   1.7374293e+03   1.7678857e+03   1.7981959e+03   1.8284952e+03   1.8592522e+03   1.8935904e+03   1.9432444e+03   1.9959028e+03   2.0486172e+03   2.1012736e+03   2.1535005e+03   2.2056703e+03   2.2577271e+03   2.3096742e+03   2.3615420e+03   2.4135295e+03   2.4656557e+03   2.5176396e+03   2.5703681e+03   2.6234038e+03   2.6751596e+03   2.7268307e+03
-1.1976849e+03  -1.1135377e+03  -1.0316973e+03  -9.5165360e+02  -8.7118889e+02  -7.9047919e+02  -7.0928085e+02  -6.2805063e+02  -5.4678125e+02  -4.6552024e+02  -3.8433204e+02  -3.0336947e+02  -2.2309461e+02  -1.4457582e+02  -6.9698408e+01   1.7984641e+00   7.0876253e+01   1.3939893e+02   2.0559905e+02   2.6568120e+02   3.2208442e+02   3.7646050e+02   4.2962954e+02   4.8188513e+02   5.3383912e+02   5.8474200e+02   6.2936470e+02   6.6758383e+02   7.0012312e+02   7.2712170e+02   7.4617570e+02   7.6156391e+02   7.7453717e+02   7.8561494e+02   7.9444823e+02   8.0170217e+02   8.0887550e+02   8.1676047e+02   8.2590724e+02   8.3723965e+02   8.5169099e+02   8.7010916e+02   8.9303480e+02   9.1903829e+02   9.4673675e+02   9.7516128e+02   1.0038817e+03   1.0331539e+03   1.0633088e+03   1.0937735e+03   1.1243122e+03   1.1549470e+03   1.1857364e+03   1.2165634e+03   1.2473854e+03   1.2781165e+03   1.3086851e+03   1.3392289e+03   1.3697887e+03   1.4004299e+03   1.4312101e+03   1.4620121e+03   1.4928071e+03   1.5235909e+03   1.5543606e+03   1.5851256e+03   1.6158816e+03   1.6465793e+03   1.6771558e+03   1.7076868e+03   1.7381988e+03   1.7686492e+03   1.7989638e+03   1.8292558e+03   1.8600221e+03   1.8947081e+03   1.9441204e+03   1.9968647e+03   2.0496623e+03   2.1023846e+03   2.1546696e+03   2.2068834e+03   2.2589741e+03   2.3109287e+03   2.3627365e+03   2.4146594e+03   2.4666982e+03   2.5185656e+03   2.5710581e+03   2.6239092e+03   2.6758401e+03   2.7274138e+03
-1.1972513e+03  -1.1132060e+03  -1.0312014e+03  -9.5125439e+02  -8.7095292e+02  -7.9030911e+02  -7.0911360e+02  -6.2787020e+02  -5.4658878e+02  -4.6531678e+02  -3.8411636e+02  -3.0314004e+02  -2.2286662e+02  -1.4441342e+02  -6.9644682e+01   1.8070418e+00   7.1013373e+01   1.3977237e+02   2.0598211e+02   2.6600940e+02   3.2247992e+02   3.7691973e+02   4.3015955e+02   4.8253099e+02   5.3452389e+02   5.8532571e+02   6.2973529e+02   6.6782821e+02   7.0029783e+02   7.2710385e+02   7.4637681e+02   7.6190809e+02   7.7502371e+02   7.8626864e+02   7.9521740e+02   8.0257531e+02   8.0981752e+02   8.1770341e+02   8.2690642e+02   8.3839346e+02   8.5307098e+02   8.7169931e+02   8.9457935e+02   9.2047616e+02   9.4801168e+02   9.7629274e+02   1.0049026e+03   1.0341145e+03   1.0641950e+03   1.0946168e+03   1.1251324e+03   1.1557617e+03   1.1865486e+03   1.2173788e+03   1.2482053e+03   1.2789445e+03   1.3095264e+03   1.3400687e+03   1.3706224e+03   1.4012531e+03   1.4320174e+03   1.4628162e+03   1.4936128e+03   1.5243985e+03   1.5551703e+03   1.5859373e+03   1.6166937e+03   1.6473878e+03   1.6779681e+03   1.7085007e+03   1.7390101e+03   1.7694510e+03   1.7997667e+03   1.8300506e+03   1.8608870e+03   1.8959641e+03   1.9450840e+03   1.9978663e+03   2.0507497e+03   2.1035387e+03   2.1558843e+03   2.2081427e+03   2.2602654e+03   2.3122218e+03   2.3639676e+03   2.4158215e+03   2.4677701e+03   2.5195319e+03   2.5718159e+03   2.6244494e+03   2.6764094e+03   2.7279970e+03
-1.1968176e+03  -1.1128148e+03  -1.0307030e+03  -9.5085524e+02  -8.7071778e+02  -7.9014384e+02  -7.0895159e+02  -6.2769454e+02  -5.4640068e+02  -4.6511748e+02  -3.8390467e+02  -3.0291464e+02  -2.2264271e+02  -1.4425100e+02  -6.9576726e+01   1.8459545e+00   7.1186505e+01   1.4016554e+02   2.0635528e+02   2.6632053e+02   3.2285868e+02   3.7736791e+02   4.3068917e+02   4.8319000e+02   5.3522304e+02   5.8589616e+02   6.3009071e+02   6.6804124e+02   7.0039552e+02   7.2715191e+02   7.4668828e+02   7.6234369e+02   7.7557240e+02   7.8692580e+02   7.9598194e+02   8.0348896e+02   8.1083987e+02   8.1876013e+02   8.2809652e+02   8.3972490e+02   8.5456406e+02   8.7337331e+02   8.9620809e+02   9.2196525e+02   9.4932990e+02   9.7746411e+02   1.0059723e+03   1.0351267e+03   1.0651276e+03   1.0954972e+03   1.1259871e+03   1.1566094e+03   1.1873915e+03   1.2182225e+03   1.2490507e+03   1.2797948e+03   1.3103886e+03   1.3409316e+03   1.3714820e+03   1.4021053e+03   1.4328551e+03   1.4636491e+03   1.4944458e+03   1.5252321e+03   1.5560051e+03   1.5867729e+03   1.6175276e+03   1.6482169e+03   1.6787994e+03   1.7093326e+03   1.7398369e+03   1.7702656e+03   1.8005776e+03   1.8308563e+03   1.8618141e+03   1.8972935e+03   1.9460886e+03   1.9988729e+03   2.0518429e+03   2.1046994e+03   2.1571075e+03   2.2094109e+03   2.2615640e+03   2.3135164e+03   2.3651983e+03   2.4169798e+03   2.4688371e+03   2.5205020e+03   2.5725956e+03   2.6249875e+03   2.6768871e+03   2.7285801e+03
-1.1963840e+03  -1.1123694e+03  -1.0302030e+03  -9.5045518e+02  -8.7048315e+02  -7.8998261e+02  -7.0879534e+02  -6.2752393e+02  -5.4621704e+02  -4.6492229e+02  -3.8369691e+02  -3.0269340e+02  -2.2242298e+02  -1.4408859e+02  -6.9489668e+01   1.9291348e+00   7.1419671e+01   1.4061106e+02   2.0675761e+02   2.6664012e+02   3.2322960e+02   3.7781194e+02   4.3122585e+02   4.8386737e+02   5.3594821e+02   5.8647213e+02   6.3045567e+02   6.6824145e+02   7.0049652e+02   7.2742345e+02   7.4730018e+02   7.6304381e+02   7.7633241e+02   7.8762618e+02   7.9667990e+02   8.0437910e+02   8.1186469e+02   8.1995135e+02   8.2948800e+02   8.4124352e+02   8.5617236e+02   8.7508002e+02   8.9788296e+02   9.2349693e+02   9.5069083e+02   9.7867933e+02   1.0070933e+03   1.0361907e+03   1.0661106e+03   1.0964208e+03   1.1268818e+03   1.1574946e+03   1.1882701e+03   1.2190994e+03   1.2499274e+03   1.2806755e+03   1.3112815e+03   1.3418282e+03   1.3723779e+03   1.4029950e+03   1.4337303e+03   1.4645175e+03   1.4953125e+03   1.5260981e+03   1.5568712e+03   1.5876386e+03   1.6183899e+03   1.6490731e+03   1.6796561e+03   1.7101887e+03   1.7406856e+03   1.7711001e+03   1.8014019e+03   1.8316768e+03   1.8627958e+03   1.8986645e+03   1.9471409e+03   1.9998941e+03   2.0529490e+03   2.1058751e+03   2.1583468e+03   2.2106959e+03   2.2628785e+03   2.3148231e+03   2.3664409e+03   2.4181484e+03   2.4699160e+03   2.5214988e+03   2.5734286e+03   2.6255565e+03   2.6773136e+03   2.7291632e+03
-1.1959503e+03  -1.1118830e+03  -1.0297052e+03  -9.5005917e+02  -8.7025186e+02  -7.8982704e+02  -7.0864492e+02  -6.2735878e+02  -5.4603839e+02  -4.6473182e+02  -3.8349382e+02  -3.0247738e+02  -2.2220879e+02  -1.4392554e+02  -6.9383497e+01   2.0507699e+00   7.1697176e+01   1.4108063e+02   2.0715622e+02   2.6695202e+02   3.2358760e+02   3.7824669e+02   4.3176154e+02   4.8454509e+02   5.3667492e+02   5.8703292e+02   6.3080400e+02   6.6841861e+02   7.0065239e+02   7.2803278e+02   7.4831462e+02   7.6413092e+02   7.7735426e+02   7.8839195e+02   7.9735588e+02   8.0520589e+02   8.1288203e+02   8.2121565e+02   8.3095636e+02   8.4285553e+02   8.5784684e+02   8.7680140e+02   8.9957338e+02   9.2504886e+02   9.5207534e+02   9.7992171e+02   1.0082463e+03   1.0372858e+03   1.0671249e+03   1.0973717e+03   1.1278007e+03   1.1584015e+03   1.1891687e+03   1.2199944e+03   1.2508209e+03   1.2815712e+03   1.3121880e+03   1.3427399e+03   1.3732900e+03   1.4039019e+03   1.4346236e+03   1.4654024e+03   1.4961943e+03   1.5269781e+03   1.5577500e+03   1.5885160e+03   1.6192624e+03   1.6499386e+03   1.6805204e+03   1.7110509e+03   1.7415386e+03   1.7719373e+03   1.8022236e+03   1.8324991e+03   1.8637992e+03   1.9000272e+03   1.9482049e+03   2.0009094e+03   2.0540466e+03   2.1070436e+03   2.1595795e+03   2.2119750e+03   2.2641860e+03   2.3161194e+03   2.3676727e+03   2.4193053e+03   2.4709865e+03   2.5224977e+03   2.5742797e+03   2.6261316e+03   2.6777046e+03   2.7297463e+03
-1.1955167e+03  -1.1114489e+03  -1.0292310e+03  -9.4967286e+02  -8.7002465e+02  -7.8967683e+02  -7.0850091e+02  -6.2719947e+02  -5.4586495e+02  -4.6454615e+02  -3.8329552e+02  -3.0226707e+02  -2.2200081e+02  -1.4376201e+02  -6.9252551e+01   2.2265809e+00   7.2045218e+01   1.4160948e+02   2.0759574e+02   2.6728957e+02   3.2394638e+02   3.7868081e+02   4.3230344e+02   4.8522228e+02   5.3740679e+02   5.8760354e+02   6.3117350e+02   6.6860575e+02   7.0094817e+02   7.2885188e+02   7.4951217e+02   7.6544600e+02   7.7850415e+02   7.8921121e+02   7.9804853e+02   8.0597615e+02   8.1385458e+02   8.2241684e+02   8.3237879e+02   8.4446978e+02   8.5957862e+02   8.7856553e+02   9.0131124e+02   9.2666972e+02   9.5353850e+02   9.8124672e+02   1.0094849e+03   1.0384662e+03   1.0682254e+03   1.0984059e+03   1.1287989e+03   1.1593840e+03   1.1901401e+03   1.2209594e+03   1.2517804e+03   1.2825217e+03   1.3131303e+03   1.3436755e+03   1.3742167e+03   1.4048245e+03   1.4355418e+03   1.4663121e+03   1.4970998e+03   1.5278808e+03   1.5586505e+03   1.5894138e+03   1.6201541e+03   1.6508225e+03   1.6814011e+03   1.7119278e+03   1.7424050e+03   1.7727869e+03   1.8030538e+03   1.8333345e+03   1.8648196e+03   1.9013700e+03   1.9492897e+03   2.0019362e+03   2.0551500e+03   2.1082189e+03   2.1608196e+03   2.2132620e+03   2.2655009e+03   2.3174219e+03   2.3689126e+03   2.4204707e+03   2.4720705e+03   2.5235270e+03   2.5751919e+03   2.6267889e+03   2.6781542e+03   2.7303295e+03
