-1.1992418e+03  -1.1223181e+03  -1.0427750e+03  -9.5935412e+02  -8.7729726e+02  -7.9619865e+02  -7.1530117e+02  -6.3442439e+02  -5.5354747e+02  -4.7267517e+02  -3.9182130e+02  -3.5141873e+02  -3.1101617e+02  -2.7067442e+02  -2.3033268e+02  -2.1025583e+02  -1.9017899e+02  -1.7010215e+02  -1.5002530e+02  -1.3032485e+02  -1.1062441e+02  -9.0923963e+01  -7.1223517e+01  -5.2257793e+01  -3.3292068e+01  -1.4326344e+01   4.6393805e+00   2.2213362e+01   3.9787344e+01   5.7361326e+01   7.4935307e+01   9.0670411e+01   1.0640551e+02   1.2214062e+02   1.3787572e+02   1.5264904e+02   1.6742235e+02   1.8219567e+02   1.9696898e+02   2.1126208e+02   2.2555518e+02   2.3984827e+02   2.5414137e+02   2.6776480e+02   2.8138823e+02   2.9501166e+02   3.0863509e+02   3.2208763e+02   3.3554019e+02   3.4899274e+02   3.6244529e+02   3.7589880e+02   3.8935231e+02   4.0280582e+02   4.1625934e+02   4.2975510e+02   4.4325086e+02   4.5674662e+02   4.7024238e+02   4.8346338e+02   4.9668438e+02   5.0990538e+02   5.2312638e+02   5.3615353e+02   5.4918069e+02   5.6220784e+02   5.7523500e+02   5.8774369e+02   6.0025238e+02   6.1276107e+02   6.2526976e+02   6.3568016e+02   6.4609056e+02   6.5650096e+02   6.6691135e+02   6.8368795e+02   7.0046455e+02   7.1557813e+02   7.3069170e+02   7.4857489e+02   7.6183850e+02   7.7286890e+02   7.8247325e+02   7.9099050e+02   7.9697372e+02   8.0273073e+02   8.0841002e+02   8.1397137e+02   8.2177606e+02   8.3706571e+02   8.5367422e+02   8.7842158e+02   9.0316892e+02   9.3254908e+02   9.6192923e+02   9.9198051e+02   1.0220318e+03   1.0523378e+03   1.0826439e+03   1.1130394e+03   1.1434349e+03   1.1739910e+03   1.2045470e+03   1.2351329e+03   1.2657188e+03   1.2963166e+03   1.3269146e+03   1.3575014e+03   1.3880882e+03   1.4186199e+03   1.4491516e+03   1.4796732e+03   1.5101949e+03   1.5407000e+03   1.5712052e+03   1.6016551e+03   1.6321049e+03   1.6623155e+03   1.6925259e+03   1.7227136e+03   1.7529014e+03   1.7826552e+03   1.8124091e+03   1.8441718e+03   1.8759345e+03   1.9258283e+03   1.9757221e+03   2.0268311e+03   2.0779401e+03   2.1289936e+03   2.1800471e+03   2.2312582e+03   2.2824693e+03   2.3350766e+03   2.3876840e+03   2.4405479e+03   2.4934118e+03   2.5472351e+03   2.6010585e+03   2.6507376e+03   2.7004167e+03
-1.1985646e+03  -1.1221771e+03  -1.0429249e+03  -9.5933674e+02  -8.7722030e+02  -7.9611065e+02  -7.1520505e+02  -6.3431652e+02  -5.5342739e+02  -4.7254323e+02  -3.9167879e+02  -3.5127278e+02  -3.1086678e+02  -2.7052555e+02  -2.3018432e+02  -2.1011063e+02  -1.9003695e+02  -1.6996326e+02  -1.4988957e+02  -1.3020258e+02  -1.1051560e+02  -9.0828612e+01  -7.1141626e+01  -5.2205100e+01  -3.3268575e+01  -1.4332049e+01   4.6044769e+00   2.2143912e+01   3.9683346e+01   5.7222781e+01   7.4762216e+01   9.0488527e+01   1.0621484e+02   1.2194115e+02   1.3766746e+02   1.5248910e+02   1.6731074e+02   1.8213239e+02   1.9695403e+02   2.1127262e+02   2.2559121e+02   2.3990979e+02   2.5422838e+02   2.6785694e+02   2.8148551e+02   2.9511407e+02   3.0874264e+02   3.2219524e+02   3.3564784e+02   3.4910044e+02   3.6255304e+02   3.7600750e+02   3.8946197e+02   4.0291643e+02   4.1637089e+02   4.2987393e+02   4.4337698e+02   4.5688002e+02   4.7038307e+02   4.8359290e+02   4.9680273e+02   5.1001257e+02   5.2322240e+02   5.3619050e+02   5.4915861e+02   5.6212671e+02   5.7509481e+02   5.8761458e+02   6.0013436e+02   6.1265413e+02   6.2517390e+02   6.3556837e+02   6.4596284e+02   6.5635730e+02   6.6675177e+02   6.8324961e+02   6.9974746e+02   7.1450044e+02   7.2925342e+02   7.4683163e+02   7.6038153e+02   7.7194081e+02   7.8219541e+02   7.9081352e+02   7.9658030e+02   8.0232316e+02   8.0806602e+02   8.1380888e+02   8.1955174e+02   8.3642301e+02   8.5329428e+02   8.7813580e+02   9.0297732e+02   9.3241941e+02   9.6186150e+02   9.9194225e+02   1.0220230e+03   1.0523507e+03   1.0826784e+03   1.1130889e+03   1.1434995e+03   1.1740693e+03   1.2046391e+03   1.2352372e+03   1.2658352e+03   1.2964447e+03   1.3270543e+03   1.3576521e+03   1.3882499e+03   1.4187914e+03   1.4493329e+03   1.4798660e+03   1.5103990e+03   1.5409155e+03   1.5714320e+03   1.6018963e+03   1.6323606e+03   1.6625833e+03   1.6928060e+03   1.7230099e+03   1.7532138e+03   1.7829886e+03   1.8127634e+03   1.8444133e+03   1.8760630e+03   1.9260728e+03   1.9760826e+03   2.0272344e+03   2.0783861e+03   2.1294726e+03   2.1805591e+03   2.2318006e+03   2.2830421e+03   2.3356740e+03   2.3883059e+03   2.4411775e+03   2.4940491e+03   2.5479169e+03   2.6017847e+03   2.6514780e+03   2.7011713e+03
-1.1985646e+03  -1.1221030e+03  -1.0430408e+03  -9.5929633e+02  -8.7712959e+02  -7.9601145e+02  -7.1509789e+02  -6.3419754e+02  -5.5329607e+02  -4.7239999e+02  -3.9152502e+02  -3.5111590e+02  -3.1070677e+02  -2.7036725e+02  -2.3002773e+02  -2.0995829e+02  -1.8988885e+02  -1.6981942e+02  -1.4974998e+02  -1.3007561e+02  -1.1040124e+02  -9.0726877e+01  -7.1052509e+01  -5.2142071e+01  -3.3231634e+01  -1.4321196e+01   4.5892419e+00   2.2095065e+01   3.9600887e+01   5.7106710e+01   7.4612533e+01   9.0332202e+01   1.0605187e+02   1.2177154e+02   1.3749121e+02   1.5236335e+02   1.6723548e+02   1.8210762e+02   1.9697976e+02   2.1132385e+02   2.2566793e+02   2.4001202e+02   2.5435611e+02   2.6798731e+02   2.8161851e+02   2.9524971e+02   3.0888091e+02   3.2233348e+02   3.3578604e+02   3.4923861e+02   3.6269118e+02   3.7614607e+02   3.8960095e+02   4.0305584e+02   4.1651073e+02   4.3002009e+02   4.4352945e+02   4.5703882e+02   4.7054818e+02   4.8375282e+02   4.9695747e+02   5.1016211e+02   5.2336676e+02   5.3627816e+02   5.4918957e+02   5.6210098e+02   5.7501238e+02   5.8753786e+02   6.0006333e+02   6.1258880e+02   6.2511428e+02   6.3549730e+02   6.4588031e+02   6.5626333e+02   6.6664634e+02   6.8290292e+02   6.9915949e+02   7.1360901e+02   7.2805854e+02   7.4552046e+02   7.5929105e+02   7.7103910e+02   7.8135527e+02   7.9027956e+02   7.9551238e+02   8.0152205e+02   8.0753171e+02   8.1354138e+02   8.1955105e+02   8.3623269e+02   8.5291434e+02   8.7785003e+02   9.0278571e+02   9.3228975e+02   9.6179377e+02   9.9190398e+02   1.0220142e+03   1.0523636e+03   1.0827128e+03   1.1131384e+03   1.1435641e+03   1.1741477e+03   1.2047313e+03   1.2353414e+03   1.2659516e+03   1.2965728e+03   1.3271940e+03   1.3578028e+03   1.3884117e+03   1.4189630e+03   1.4495143e+03   1.4800587e+03   1.5106031e+03   1.5411310e+03   1.5716589e+03   1.6021376e+03   1.6326163e+03   1.6628512e+03   1.6930862e+03   1.7233062e+03   1.7535262e+03   1.7833220e+03   1.8131177e+03   1.8446546e+03   1.8761915e+03   1.9263173e+03   1.9764431e+03   2.0276376e+03   2.0788322e+03   2.1299516e+03   2.1810711e+03   2.2323430e+03   2.2836149e+03   2.3362713e+03   2.3889277e+03   2.4418071e+03   2.4946865e+03   2.5485987e+03   2.6025109e+03   2.6522185e+03   2.7019260e+03
-1.1985646e+03  -1.1220289e+03  -1.0431568e+03  -9.5925593e+02  -8.7703888e+02  -7.9591226e+02  -7.1499074e+02  -6.3407856e+02  -5.5316476e+02  -4.7225674e+02  -3.9137125e+02  -3.5095900e+02  -3.1054676e+02  -2.7020895e+02  -2.2987114e+02  -2.0980596e+02  -1.8974077e+02  -1.6967559e+02  -1.4961040e+02  -1.2994865e+02  -1.1028690e+02  -9.0625145e+01  -7.0963393e+01  -5.2079043e+01  -3.3194693e+01  -1.4310343e+01   4.5740070e+00   2.2046218e+01   3.9518428e+01   5.6990639e+01   7.4462849e+01   9.0175877e+01   1.0588890e+02   1.2160193e+02   1.3731496e+02   1.5223759e+02   1.6716022e+02   1.8208285e+02   1.9700548e+02   2.1137507e+02   2.2574466e+02   2.4011424e+02   2.5448383e+02   2.6811767e+02   2.8175151e+02   2.9538535e+02   3.0901919e+02   3.2247172e+02   3.3592426e+02   3.4937679e+02   3.6282932e+02   3.7628463e+02   3.8973995e+02   4.0319527e+02   4.1665058e+02   4.3016626e+02   4.4368193e+02   4.5719761e+02   4.7071329e+02   4.8391274e+02   4.9711220e+02   5.1031165e+02   5.2351111e+02   5.3636582e+02   5.4922053e+02   5.6207524e+02   5.7492995e+02   5.8746113e+02   5.9999230e+02   6.1252347e+02   6.2505465e+02   6.3542622e+02   6.4579778e+02   6.5616935e+02   6.6654092e+02   6.8255621e+02   6.9857151e+02   7.1271759e+02   7.2686367e+02   7.4420928e+02   7.5820058e+02   7.7013740e+02   7.8051512e+02   7.8974560e+02   7.9444446e+02   8.0072093e+02   8.0699740e+02   8.1327387e+02   8.1955035e+02   8.3604237e+02   8.5253440e+02   8.7756426e+02   9.0259411e+02   9.3216008e+02   9.6172605e+02   9.9186572e+02   1.0220054e+03   1.0523764e+03   1.0827473e+03   1.1131880e+03   1.1436288e+03   1.1742261e+03   1.2048234e+03   1.2354457e+03   1.2660681e+03   1.2967009e+03   1.3273337e+03   1.3579535e+03   1.3885734e+03   1.4191345e+03   1.4496956e+03   1.4802514e+03   1.5108073e+03   1.5413465e+03   1.5718858e+03   1.6023789e+03   1.6328719e+03   1.6631191e+03   1.6933663e+03   1.7236025e+03   1.7538386e+03   1.7836553e+03   1.8134721e+03   1.8448960e+03   1.8763200e+03   1.9265618e+03   1.9768036e+03   2.0280409e+03   2.0792782e+03   2.1304306e+03   2.1815830e+03   2.2328854e+03   2.2841877e+03   2.3368686e+03   2.3895496e+03   2.4424367e+03   2.4953238e+03   2.5492805e+03   2.6032372e+03   2.6529590e+03   2.7026807e+03
-1.1985646e+03  -1.1219513e+03  -1.0432326e+03  -9.5920605e+02  -8.7694155e+02  -7.9580762e+02  -7.1487088e+02  -6.3394708e+02  -5.5302111e+02  -4.7210147e+02  -3.9120640e+02  -3.5079235e+02  -3.1037830e+02  -2.7004532e+02  -2.2971234e+02  -2.0965338e+02  -1.8959443e+02  -1.6953547e+02  -1.4947651e+02  -1.2983024e+02  -1.1018398e+02  -9.0537711e+01  -7.0891444e+01  -5.2036792e+01  -3.3182141e+01  -1.4327489e+01   4.5271626e+00   2.1962809e+01   3.9398456e+01   5.6834102e+01   7.4269749e+01   8.9976724e+01   1.0568370e+02   1.2139067e+02   1.3709765e+02   1.5206960e+02   1.6704154e+02   1.8201349e+02   1.9698544e+02   2.1139028e+02   2.2579513e+02   2.4019997e+02   2.5460481e+02   2.6825376e+02   2.8190270e+02   2.9555165e+02   3.0920060e+02   3.2265582e+02   3.3611104e+02   3.4956625e+02   3.6302147e+02   3.7647698e+02   3.8993249e+02   4.0338800e+02   4.1684351e+02   4.3035927e+02   4.4387504e+02   4.5739080e+02   4.7090656e+02   4.8410018e+02   4.9729379e+02   5.1048741e+02   5.2368103e+02   5.3648039e+02   5.4927975e+02   5.6207911e+02   5.7487847e+02   5.8737913e+02   5.9987980e+02   6.1238046e+02   6.2488113e+02   6.3522508e+02   6.4556903e+02   6.5591297e+02   6.6625692e+02   6.8210471e+02   6.9795250e+02   7.1172547e+02   7.2549844e+02   7.4302528e+02   7.5719259e+02   7.6920380e+02   7.7949259e+02   7.8865531e+02   7.9502951e+02   8.0109604e+02   8.0725611e+02   8.1352018e+02   8.2049558e+02   8.3616663e+02   8.5278113e+02   8.7739366e+02   9.0257519e+02   9.3210000e+02   9.6172686e+02   9.9187746e+02   1.0220427e+03   1.0524254e+03   1.0828137e+03   1.1132652e+03   1.1437211e+03   1.1743270e+03   1.2049360e+03   1.2355678e+03   1.2662002e+03   1.2968422e+03   1.3274843e+03   1.3581142e+03   1.3887430e+03   1.4193141e+03   1.4498840e+03   1.4804492e+03   1.5110140e+03   1.5415628e+03   1.5721107e+03   1.6026166e+03   1.6331171e+03   1.6633793e+03   1.6936370e+03   1.7238858e+03   1.7541298e+03   1.7839755e+03   1.8138298e+03   1.8451498e+03   1.8766966e+03   1.9268535e+03   1.9772089e+03   2.0284750e+03   2.0797452e+03   2.1309235e+03   2.1821025e+03   2.2334241e+03   2.2847515e+03   2.3374379e+03   2.3901338e+03   2.4430273e+03   2.4959271e+03   2.5499183e+03   2.6039285e+03   2.6537444e+03   2.7034354e+03
-1.1985646e+03  -1.1219654e+03  -1.0432937e+03  -9.5914104e+02  -8.7683507e+02  -7.9569626e+02  -7.1474674e+02  -6.3381138e+02  -5.5287322e+02  -4.7194189e+02  -3.9103707e+02  -3.5062110e+02  -3.1020513e+02  -2.6987690e+02  -2.2954867e+02  -2.0949613e+02  -1.8944359e+02  -1.6939106e+02  -1.4933852e+02  -1.2970712e+02  -1.1007573e+02  -9.0444334e+01  -7.0812939e+01  -5.1985512e+01  -3.3158084e+01  -1.4330657e+01   4.4967704e+00   2.1898218e+01   3.9299665e+01   5.6701113e+01   7.4102560e+01   8.9807060e+01   1.0551156e+02   1.2121606e+02   1.3692056e+02   1.5194398e+02   1.6696740e+02   1.8199081e+02   1.9701423e+02   2.1145071e+02   2.2588718e+02   2.4032366e+02   2.5476014e+02   2.6841915e+02   2.8207817e+02   2.9573719e+02   3.0939620e+02   3.2285308e+02   3.3630996e+02   3.4976684e+02   3.6322372e+02   3.7667828e+02   3.9013284e+02   4.0358741e+02   4.1704197e+02   4.3055698e+02   4.4407198e+02   4.5758699e+02   4.7110200e+02   4.8429261e+02   4.9748321e+02   5.1067382e+02   5.2386443e+02   5.3661594e+02   5.4936745e+02   5.6211896e+02   5.7487047e+02   5.8734500e+02   5.9981953e+02   6.1229406e+02   6.2476859e+02   6.3508545e+02   6.4540231e+02   6.5571916e+02   6.6603602e+02   6.8172266e+02   6.9740930e+02   7.1089195e+02   7.2437459e+02   7.4203170e+02   7.5632760e+02   7.6840446e+02   7.7878252e+02   7.8837618e+02   7.9542120e+02   8.0151081e+02   8.0749639e+02   8.1371530e+02   8.2100855e+02   8.3614955e+02   8.5283595e+02   8.7723596e+02   9.0253320e+02   9.3204998e+02   9.6173153e+02   9.9189705e+02   1.0220851e+03   1.0524809e+03   1.0828856e+03   1.1133482e+03   1.1438176e+03   1.1744327e+03   1.2050530e+03   1.2356941e+03   1.2663362e+03   1.2969873e+03   1.3276385e+03   1.3582782e+03   1.3889160e+03   1.4194963e+03   1.4500749e+03   1.4806493e+03   1.5112230e+03   1.5417810e+03   1.5723376e+03   1.6028556e+03   1.6333649e+03   1.6636401e+03   1.6939082e+03   1.7241693e+03   1.7544221e+03   1.7842923e+03   1.8141762e+03   1.8454106e+03   1.8770114e+03   1.9271536e+03   1.9776174e+03   2.0289155e+03   2.0802202e+03   2.1314252e+03   2.1826312e+03   2.2339724e+03   2.2853234e+03   2.3380154e+03   2.3907227e+03   2.4436209e+03   2.4965293e+03   2.5505492e+03   2.6046013e+03   2.6545004e+03   2.7041901e+03
-1.1970279e+03  -1.1220669e+03  -1.0433418e+03  -9.5906375e+02  -8.7672137e+02  -7.9557940e+02  -7.1461878e+02  -6.3367193e+02  -5.5272160e+02  -4.7177856e+02  -3.9086394e+02  -3.5044603e+02  -3.1002812e+02  -2.6970472e+02  -2.2938132e+02  -2.0933546e+02  -1.8928960e+02  -1.6924374e+02  -1.4919788e+02  -1.2958108e+02  -1.0996427e+02  -9.0347466e+01  -7.0730661e+01  -5.1928723e+01  -3.3126786e+01  -1.4324848e+01   4.4770893e+00   2.1846209e+01   3.9215329e+01   5.6584449e+01   7.3953569e+01   8.9658652e+01   1.0536373e+02   1.2106882e+02   1.3677390e+02   1.5185073e+02   1.6692757e+02   1.8200440e+02   1.9708123e+02   2.1154689e+02   2.2601254e+02   2.4047820e+02   2.5494386e+02   2.6860971e+02   2.8227556e+02   2.9594141e+02   3.0960726e+02   3.2306514e+02   3.3652302e+02   3.4998091e+02   3.6343879e+02   3.7689145e+02   3.9034412e+02   4.0379678e+02   4.1724945e+02   4.3076227e+02   4.4427508e+02   4.5778790e+02   4.7130072e+02   4.8449063e+02   4.9768054e+02   5.1087044e+02   5.2406035e+02   5.3677027e+02   5.4948019e+02   5.6219010e+02   5.7490002e+02   5.8735029e+02   5.9980057e+02   6.1225084e+02   6.2470111e+02   6.3499063e+02   6.4528015e+02   6.5556968e+02   6.6585920e+02   6.8139418e+02   6.9692915e+02   7.1018603e+02   7.2344291e+02   7.4118645e+02   7.5557548e+02   7.6773658e+02   7.7836656e+02   7.8846119e+02   7.9578502e+02   8.0187791e+02   8.0770111e+02   8.1381865e+02   8.2120538e+02   8.3600276e+02   8.5276514e+02   8.7709589e+02   9.0249257e+02   9.3202284e+02   9.6175379e+02   9.9193594e+02   1.0221446e+03   1.0525540e+03   1.0829740e+03   1.1134475e+03   1.1439292e+03   1.1745539e+03   1.2051849e+03   1.2358351e+03   1.2664864e+03   1.2971463e+03   1.3278063e+03   1.3584555e+03   1.3891021e+03   1.4196912e+03   1.4502783e+03   1.4808616e+03   1.5114440e+03   1.5420108e+03   1.5725760e+03   1.6031054e+03   1.6336241e+03   1.6639111e+03   1.6941894e+03   1.7244622e+03   1.7547246e+03   1.7846161e+03   1.8145241e+03   1.8456866e+03   1.8773002e+03   1.9274733e+03   1.9780399e+03   2.0293718e+03   2.0807114e+03   2.1319429e+03   2.1831757e+03   2.2345360e+03   2.2859084e+03   2.3386045e+03   2.3913196e+03   2.4442200e+03   2.4971328e+03   2.5511749e+03   2.6052585e+03   2.6552350e+03   2.7049448e+03
-1.1954913e+03  -1.1222682e+03  -1.0433652e+03  -9.5897325e+02  -8.7659992e+02  -7.9545637e+02  -7.1448575e+02  -6.3352754e+02  -5.5256511e+02  -4.7161037e+02  -3.9068598e+02  -3.5026621e+02  -3.0984643e+02  -2.6952818e+02  -2.2920992e+02  -2.0917116e+02  -1.8913240e+02  -1.6909363e+02  -1.4905487e+02  -1.2945281e+02  -1.0985074e+02  -9.0248681e+01  -7.0646618e+01  -5.1869017e+01  -3.3091416e+01  -1.4313815e+01   4.4637865e+00   2.1802459e+01   3.9141131e+01   5.6479803e+01   7.3818475e+01   8.9527776e+01   1.0523708e+02   1.2094638e+02   1.3665568e+02   1.5178749e+02   1.6691931e+02   1.8205112e+02   1.9718293e+02   2.1167612e+02   2.2616932e+02   2.4066251e+02   2.5515570e+02   2.6882637e+02   2.8249705e+02   2.9616773e+02   3.0983840e+02   3.2329684e+02   3.3675528e+02   3.5021373e+02   3.6367217e+02   3.7712179e+02   3.9057141e+02   4.0402103e+02   4.1747065e+02   4.3097855e+02   4.4448645e+02   4.5799435e+02   4.7150225e+02   4.8469321e+02   4.9788416e+02   5.1107512e+02   5.2426608e+02   5.3694185e+02   5.4961762e+02   5.6229339e+02   5.7496916e+02   5.8739378e+02   5.9981840e+02   6.1224303e+02   6.2466765e+02   6.3492778e+02   6.4518791e+02   6.5544803e+02   6.6570816e+02   6.8110707e+02   6.9650598e+02   7.0958951e+02   7.2267304e+02   7.4046946e+02   7.5492515e+02   7.6719428e+02   7.7817015e+02   7.8875956e+02   7.9614923e+02   8.0218623e+02   8.0785075e+02   8.1382827e+02   8.2115946e+02   8.3574863e+02   8.5261750e+02   8.7697197e+02   9.0246262e+02   9.3201955e+02   9.6179567e+02   9.9199502e+02   1.0222226e+03   1.0526456e+03   1.0830799e+03   1.1135642e+03   1.1440573e+03   1.1746916e+03   1.2053328e+03   1.2359918e+03   1.2666519e+03   1.2973202e+03   1.3279887e+03   1.3586471e+03   1.3893024e+03   1.4199000e+03   1.4504955e+03   1.4810872e+03   1.5116781e+03   1.5422534e+03   1.5728270e+03   1.6033673e+03   1.6338957e+03   1.6641935e+03   1.6944819e+03   1.7247659e+03   1.7550383e+03   1.7849491e+03   1.8148774e+03   1.8459782e+03   1.8775812e+03   1.9278130e+03   1.9784780e+03   2.0298446e+03   2.0812194e+03   2.1324771e+03   2.1837361e+03   2.2351148e+03   2.2865069e+03   2.3392048e+03   2.3919242e+03   2.4448243e+03   2.4977381e+03   2.5517960e+03   2.6059021e+03   2.6559538e+03   2.7056995e+03
-1.1954913e+03  -1.1225224e+03  -1.0433633e+03  -9.5887225e+02  -8.7647236e+02  -7.9532830e+02  -7.1434847e+02  -6.3337906e+02  -5.5240458e+02  -4.7143820e+02  -3.9050409e+02  -3.5008258e+02  -3.0966108e+02  -2.6934830e+02  -2.2903552e+02  -2.0900426e+02  -1.8897299e+02  -1.6894172e+02  -1.4891046e+02  -1.2932344e+02  -1.0973643e+02  -9.0149409e+01  -7.0562392e+01  -5.1808404e+01  -3.3054415e+01  -1.4300427e+01   4.4535613e+00   2.1763360e+01   3.9073160e+01   5.6382959e+01   7.3692758e+01   8.9409416e+01   1.0512607e+02   1.2084273e+02   1.3655939e+02   1.5174772e+02   1.6693605e+02   1.8212438e+02   1.9731271e+02   2.1183230e+02   2.2635190e+02   2.4087149e+02   2.5539108e+02   2.6906535e+02   2.8273962e+02   2.9641389e+02   3.1008816e+02   3.2354685e+02   3.3700554e+02   3.5046422e+02   3.6392291e+02   3.7736846e+02   3.9081401e+02   4.0425955e+02   4.1770510e+02   4.3120549e+02   4.4470587e+02   4.5820625e+02   4.7170664e+02   4.8490007e+02   4.9809350e+02   5.1128693e+02   5.2448036e+02   5.3712822e+02   5.4977607e+02   5.6242393e+02   5.7507179e+02   5.8746853e+02   5.9986528e+02   6.1226202e+02   6.2465877e+02   6.3488721e+02   6.4511566e+02   6.5534410e+02   6.6557255e+02   6.8085056e+02   6.9612858e+02   7.0907870e+02   7.2202881e+02   7.3985485e+02   7.5436250e+02   7.6675560e+02   7.7810525e+02   7.8918451e+02   7.9652193e+02   8.0244442e+02   8.0794022e+02   8.1375176e+02   8.2093211e+02   8.3541535e+02   8.5242649e+02   8.7686037e+02   9.0244493e+02   9.3203614e+02   9.6185436e+02   9.9207095e+02   1.0223163e+03   1.0527526e+03   1.0832006e+03   1.1136954e+03   1.1441992e+03   1.1748431e+03   1.2054941e+03   1.2361616e+03   1.2668302e+03   1.2975068e+03   1.3281835e+03   1.3588508e+03   1.3895147e+03   1.4201206e+03   1.4507242e+03   1.4813242e+03   1.5119233e+03   1.5425068e+03   1.5730886e+03   1.6036394e+03   1.6341777e+03   1.6644857e+03   1.6947839e+03   1.7250787e+03   1.7553614e+03   1.7852901e+03   1.8152363e+03   1.8462832e+03   1.8778629e+03   1.9281693e+03   1.9789292e+03   2.0303312e+03   2.0817412e+03   2.1330249e+03   2.1843098e+03   2.2357063e+03   2.2871166e+03   2.3398143e+03   2.3925352e+03   2.4454329e+03   2.4983448e+03   2.5524132e+03   2.6065348e+03   2.6566609e+03   2.7064542e+03
-1.1954913e+03  -1.1227162e+03  -1.0432584e+03  -9.5876092e+02  -8.7634035e+02  -7.9519552e+02  -7.1420404e+02  -6.3322370e+02  -5.5223735e+02  -4.7125951e+02  -3.9031611e+02  -3.4989339e+02  -3.0947068e+02  -2.6916450e+02  -2.2885832e+02  -2.0883542e+02  -1.8881251e+02  -1.6878960e+02  -1.4876670e+02  -1.2919614e+02  -1.0962559e+02  -9.0055031e+01  -7.0484474e+01  -5.1755652e+01  -3.3026830e+01  -1.4298009e+01   4.4308133e+00   2.1712314e+01   3.8993815e+01   5.6275316e+01   7.3556817e+01   8.9285075e+01   1.0501333e+02   1.2074159e+02   1.3646985e+02   1.5171567e+02   1.6696150e+02   1.8220732e+02   1.9745314e+02   2.1200091e+02   2.2654868e+02   2.4109646e+02   2.5564423e+02   2.6932513e+02   2.8300604e+02   2.9668694e+02   3.1036785e+02   3.2382726e+02   3.3728667e+02   3.5074609e+02   3.6420550e+02   3.7764567e+02   3.9108583e+02   4.0452600e+02   4.1796616e+02   4.3145290e+02   4.4493964e+02   4.5842638e+02   4.7191312e+02   4.8510701e+02   4.9830090e+02   5.1149478e+02   5.2468867e+02   5.3731658e+02   5.4994449e+02   5.6257240e+02   5.7520031e+02   5.8755991e+02   5.9991952e+02   6.1227912e+02   6.2463872e+02   6.3483950e+02   6.4504029e+02   6.5524107e+02   6.6544185e+02   6.8061661e+02   6.9579136e+02   7.0863990e+02   7.2148845e+02   7.3932971e+02   7.5387999e+02   7.6639878e+02   7.7809194e+02   7.8955392e+02   7.9688578e+02   8.0265311e+02   8.0797159e+02   8.1359334e+02   8.2064650e+02   8.3509064e+02   8.5222024e+02   8.7677029e+02   9.0244169e+02   9.3206898e+02   9.6192551e+02   9.9215894e+02   1.0224207e+03   1.0528699e+03   1.0833308e+03   1.1138356e+03   1.1443496e+03   1.1750027e+03   1.2056630e+03   1.2363387e+03   1.2670155e+03   1.2976999e+03   1.3283845e+03   1.3590602e+03   1.3897326e+03   1.4203463e+03   1.4509578e+03   1.4815659e+03   1.5121729e+03   1.5427643e+03   1.5733541e+03   1.6039148e+03   1.6344627e+03   1.6647805e+03   1.6950883e+03   1.7253934e+03   1.7556860e+03   1.7856311e+03   1.8155936e+03   1.8465961e+03   1.8781443e+03   1.9285326e+03   1.9793826e+03   2.0308205e+03   2.0822661e+03   2.1335757e+03   2.1848863e+03   2.2363004e+03   2.2877284e+03   2.3404238e+03   2.3931433e+03   2.4460364e+03   2.4989483e+03   2.5530446e+03   2.6071792e+03   2.6573580e+03   2.7072088e+03
-1.1965158e+03  -1.1228677e+03  -1.0430614e+03  -9.5864236e+02  -8.7620653e+02  -7.9505986e+02  -7.1405386e+02  -6.3306287e+02  -5.5206488e+02  -4.7107581e+02  -3.9012364e+02  -3.4970030e+02  -3.0927696e+02  -2.6897855e+02  -2.2868014e+02  -2.0866641e+02  -1.8865268e+02  -1.6863896e+02  -1.4862523e+02  -1.2907268e+02  -1.0952014e+02  -8.9967592e+01  -7.0415046e+01  -5.1713426e+01  -3.3011806e+01  -1.4310186e+01   4.3914337e+00   2.1644751e+01   3.8898067e+01   5.6151384e+01   7.3404701e+01   8.9147668e+01   1.0489064e+02   1.2063360e+02   1.3637657e+02   1.5167988e+02   1.6698319e+02   1.8228651e+02   1.9758982e+02   2.1216866e+02   2.2674750e+02   2.4132634e+02   2.5590518e+02   2.6959673e+02   2.8328827e+02   2.9697982e+02   3.1067137e+02   3.2413219e+02   3.3759301e+02   3.5105383e+02   3.6451465e+02   3.7794825e+02   3.9138185e+02   4.0481546e+02   4.1824906e+02   4.3171675e+02   4.4518445e+02   4.5865215e+02   4.7211984e+02   4.8531224e+02   4.9850464e+02   5.1169704e+02   5.2488944e+02   5.3750348e+02   5.5011752e+02   5.6273155e+02   5.7534559e+02   5.8765864e+02   5.9997170e+02   6.1228476e+02   6.2459781e+02   6.3477589e+02   6.4495398e+02   6.5513207e+02   6.6531015e+02   6.8039790e+02   6.9548565e+02   7.0825674e+02   7.2102783e+02   7.3887683e+02   7.5346605e+02   7.6610359e+02   7.7807135e+02   7.8980048e+02   7.9718585e+02   8.0281404e+02   8.0795334e+02   8.1340933e+02   8.2035941e+02   8.3480765e+02   8.5202614e+02   8.7670387e+02   9.0245688e+02   9.3212069e+02   9.6201215e+02   9.9226170e+02   1.0225388e+03   1.0530004e+03   1.0834734e+03   1.1139879e+03   1.1445114e+03   1.1751735e+03   1.2058426e+03   1.2365261e+03   1.2672106e+03   1.2979027e+03   1.3285948e+03   1.3592787e+03   1.3899591e+03   1.4205805e+03   1.4511997e+03   1.4818154e+03   1.5124302e+03   1.5430292e+03   1.5736267e+03   1.6041968e+03   1.6347541e+03   1.6650812e+03   1.6953984e+03   1.7257133e+03   1.7560157e+03   1.7859763e+03   1.8159540e+03   1.8469193e+03   1.8784342e+03   1.9289071e+03   1.9798422e+03   2.0313162e+03   2.0827972e+03   2.1341324e+03   2.1854683e+03   2.2368997e+03   2.2883446e+03   2.3410355e+03   2.3937509e+03   2.4466372e+03   2.4995495e+03   2.5536687e+03   2.6078012e+03   2.6580347e+03   2.7079635e+03
-1.1975402e+03  -1.1229455e+03  -1.0427954e+03  -9.5851278e+02  -8.7606916e+02  -7.9491961e+02  -7.1389776e+02  -6.3289640e+02  -5.5188699e+02  -4.7088688e+02  -3.8992626e+02  -3.4950270e+02  -3.0907913e+02  -2.6878931e+02  -2.2849948e+02  -2.0849566e+02  -1.8849184e+02  -1.6848802e+02  -1.4848420e+02  -1.2895121e+02  -1.0941823e+02  -8.9885244e+01  -7.0352259e+01  -5.1679562e+01  -3.3006865e+01  -1.4334168e+01   4.3385286e+00   2.1564718e+01   3.8790908e+01   5.6017097e+01   7.3243287e+01   8.9004993e+01   1.0476670e+02   1.2052840e+02   1.3629011e+02   1.5165118e+02   1.6701225e+02   1.8237333e+02   1.9773440e+02   2.1234623e+02   2.2695806e+02   2.4156988e+02   2.5618171e+02   2.6988651e+02   2.8359132e+02   2.9729612e+02   3.1100092e+02   3.2446366e+02   3.3792641e+02   3.5138916e+02   3.6485190e+02   3.7827760e+02   3.9170330e+02   4.0512899e+02   4.1855469e+02   4.3199844e+02   4.4544219e+02   4.5888594e+02   4.7232969e+02   4.8551895e+02   4.9870821e+02   5.1189746e+02   5.2508672e+02   5.3769277e+02   5.5029882e+02   5.6290487e+02   5.7551092e+02   5.8777082e+02   6.0003072e+02   6.1229062e+02   6.2455052e+02   6.3470648e+02   6.4486244e+02   6.5501839e+02   6.6517435e+02   6.8019177e+02   6.9520918e+02   7.0792072e+02   7.2063226e+02   7.3848591e+02   7.5311073e+02   7.6585680e+02   7.7801426e+02   7.8990023e+02   7.9739304e+02   8.0292713e+02   8.0791967e+02   8.1323996e+02   8.2011672e+02   8.3457671e+02   8.5185380e+02   8.7665742e+02   9.0248862e+02   9.3218855e+02   9.6211224e+02   9.9237719e+02   1.0226688e+03   1.0531422e+03   1.0836268e+03   1.1141506e+03   1.1446833e+03   1.1753539e+03   1.2060314e+03   1.2367225e+03   1.2674146e+03   1.2981139e+03   1.3288133e+03   1.3595050e+03   1.3901933e+03   1.4208222e+03   1.4514489e+03   1.4820721e+03   1.5126943e+03   1.5433007e+03   1.5739056e+03   1.6044847e+03   1.6350512e+03   1.6653874e+03   1.6957138e+03   1.7260381e+03   1.7563500e+03   1.7863256e+03   1.8163178e+03   1.8472515e+03   1.8787341e+03   1.9292913e+03   1.9803074e+03   2.0318174e+03   2.0833337e+03   2.1346941e+03   2.1860551e+03   2.2375032e+03   2.2889644e+03   2.3416487e+03   2.3943580e+03   2.4472354e+03   2.5001476e+03   2.5542792e+03   2.6083963e+03   2.6586939e+03   2.7087182e+03
-1.1977339e+03  -1.1229163e+03  -1.0424819e+03  -9.5837423e+02  -8.7592872e+02  -7.9477557e+02  -7.1373712e+02  -6.3272566e+02  -5.5170502e+02  -4.7069399e+02  -3.8972519e+02  -3.4930171e+02  -3.0887823e+02  -2.6859760e+02  -2.2831697e+02  -2.0832363e+02  -1.8833029e+02  -1.6833696e+02  -1.4834362e+02  -1.2883152e+02  -1.0931943e+02  -8.9807331e+01  -7.0295235e+01  -5.1652829e+01  -3.3010424e+01  -1.4368018e+01   4.2743879e+00   2.1474603e+01   3.8674818e+01   5.5875033e+01   7.3075248e+01   8.8858964e+01   1.0464268e+02   1.2042639e+02   1.3621011e+02   1.5162948e+02   1.6704886e+02   1.8246823e+02   1.9788761e+02   2.1253356e+02   2.2717952e+02   2.4182547e+02   2.5647142e+02   2.7019112e+02   2.8391082e+02   2.9763051e+02   3.1135021e+02   3.2481508e+02   3.3827996e+02   3.5174484e+02   3.6520971e+02   3.7862630e+02   3.9204288e+02   4.0545947e+02   4.1887606e+02   4.3229257e+02   4.4570908e+02   4.5912559e+02   4.7254210e+02   4.8572690e+02   4.9891169e+02   5.1209649e+02   5.2528128e+02   5.3788358e+02   5.5048587e+02   5.6308817e+02   5.7569046e+02   5.8789249e+02   6.0009452e+02   6.1229656e+02   6.2449859e+02   6.3463229e+02   6.4476599e+02   6.5489968e+02   6.6503338e+02   6.7999431e+02   6.9495525e+02   7.0762045e+02   7.2028564e+02   7.3814340e+02   7.5280219e+02   7.6564142e+02   7.7791766e+02   7.8987745e+02   7.9750758e+02   8.0299853e+02   8.0789248e+02   8.1311089e+02   8.1993613e+02   8.3439433e+02   8.5170419e+02   8.7662584e+02   9.0253326e+02   9.3226848e+02   9.6222246e+02   9.9250221e+02   1.0228077e+03   1.0532926e+03   1.0837882e+03   1.1143211e+03   1.1448626e+03   1.1755416e+03   1.2062272e+03   1.2369256e+03   1.2676249e+03   1.2983313e+03   1.3290378e+03   1.3597371e+03   1.3904331e+03   1.4210694e+03   1.4517034e+03   1.4823338e+03   1.5129633e+03   1.5435769e+03   1.5741891e+03   1.6047769e+03   1.6353523e+03   1.6656975e+03   1.6960329e+03   1.7263663e+03   1.7566876e+03   1.7866780e+03   1.8166840e+03   1.8475904e+03   1.8790429e+03   1.9296824e+03   1.9807764e+03   2.0323224e+03   2.0838738e+03   2.1352591e+03   2.1866449e+03   2.2381096e+03   2.2895865e+03   2.3422628e+03   2.3949642e+03   2.4478315e+03   2.5007417e+03   2.5548760e+03   2.6089692e+03   2.6593414e+03   2.7094729e+03
-1.1979276e+03  -1.1227597e+03  -1.0421430e+03  -9.5822536e+02  -8.7578308e+02  -7.9462596e+02  -7.1357150e+02  -6.3255021e+02  -5.5151850e+02  -4.7049663e+02  -3.8951975e+02  -3.4909648e+02  -3.0867321e+02  -2.6840205e+02  -2.2813089e+02  -2.0814856e+02  -1.8816624e+02  -1.6818391e+02  -1.4820158e+02  -1.2871171e+02  -1.0922185e+02  -8.9731980e+01  -7.0242114e+01  -5.1631005e+01  -3.3019897e+01  -1.4408788e+01   4.2023209e+00   2.1378630e+01   3.8554940e+01   5.5731249e+01   7.2907559e+01   8.8717844e+01   1.0452813e+02   1.2033841e+02   1.3614870e+02   1.5162747e+02   1.6710624e+02   1.8258501e+02   1.9806378e+02   2.1274357e+02   2.2742336e+02   2.4210315e+02   2.5678294e+02   2.7051778e+02   2.8425261e+02   2.9798745e+02   3.1172229e+02   3.2518933e+02   3.3865636e+02   3.5212340e+02   3.6559044e+02   3.7899673e+02   3.9240302e+02   4.0580931e+02   4.1921560e+02   4.3260196e+02   4.4598832e+02   4.5937467e+02   4.7276103e+02   4.8594009e+02   4.9911915e+02   5.1229822e+02   5.2547728e+02   5.3807994e+02   5.5068259e+02   5.6328525e+02   5.7588791e+02   5.8803039e+02   6.0017287e+02   6.1231534e+02   6.2445782e+02   6.3456626e+02   6.4467469e+02   6.5478313e+02   6.6489157e+02   6.7980870e+02   6.9472583e+02   7.0735238e+02   7.1997892e+02   7.3784045e+02   7.5252748e+02   7.6544297e+02   7.7779476e+02   7.8986181e+02   7.9759002e+02   8.0305603e+02   8.0789069e+02   8.1303477e+02   8.1982661e+02   8.3427956e+02   8.5159160e+02   8.7661444e+02   9.0259223e+02   9.3236095e+02   9.6234267e+02   9.9263638e+02   1.0229548e+03   1.0534506e+03   1.0839567e+03   1.1144983e+03   1.1450483e+03   1.1757352e+03   1.2064286e+03   1.2371340e+03   1.2678403e+03   1.2985534e+03   1.3292667e+03   1.3599734e+03   1.3906768e+03   1.4213202e+03   1.4519613e+03   1.4825988e+03   1.5132354e+03   1.5438560e+03   1.5744751e+03   1.6050713e+03   1.6356553e+03   1.6660092e+03   1.6963535e+03   1.7266956e+03   1.7570259e+03   1.7870302e+03   1.8170497e+03   1.8479343e+03   1.8793605e+03   1.9300782e+03   1.9812459e+03   2.0328282e+03   2.0844151e+03   2.1358256e+03   2.1872362e+03   2.2387178e+03   2.2902105e+03   2.3428765e+03   2.3955681e+03   2.4484233e+03   2.5013314e+03   2.5555176e+03   2.6096287e+03   2.6600276e+03   2.7102276e+03
-1.1955982e+03  -1.1225281e+03  -1.0417949e+03  -9.5806838e+02  -8.7563296e+02  -7.9447195e+02  -7.1340223e+02  -6.3237136e+02  -5.5132871e+02  -4.7029606e+02  -3.8931121e+02  -3.4888822e+02  -3.0846523e+02  -2.6820370e+02  -2.2794217e+02  -2.0797126e+02  -1.8800034e+02  -1.6802943e+02  -1.4805851e+02  -1.2859198e+02  -1.0912545e+02  -8.9658921e+01  -7.0192392e+01  -5.1613248e+01  -3.3034104e+01  -1.4454960e+01   4.1241835e+00   2.1278554e+01   3.8432924e+01   5.5587295e+01   7.2741665e+01   8.8582111e+01   1.0442256e+02   1.2026300e+02   1.3610345e+02   1.5164257e+02   1.6718169e+02   1.8272080e+02   1.9825992e+02   2.1297273e+02   2.2768554e+02   2.4239836e+02   2.5711117e+02   2.7086087e+02   2.8461058e+02   2.9836028e+02   3.1210998e+02   3.2557902e+02   3.3904805e+02   3.5251709e+02   3.6598612e+02   3.7938114e+02   3.9277616e+02   4.0617118e+02   4.1956620e+02   4.3292088e+02   4.4627556e+02   4.5963024e+02   4.7298492e+02   4.8615731e+02   4.9932970e+02   5.1250209e+02   5.2567448e+02   5.3828020e+02   5.5088593e+02   5.6349165e+02   5.7609737e+02   5.8817989e+02   6.0026240e+02   6.1234491e+02   6.2442743e+02   6.3450784e+02   6.4458824e+02   6.5466864e+02   6.6474905e+02   6.7963246e+02   6.9451587e+02   7.0710841e+02   7.1970095e+02   7.3756584e+02   7.5227568e+02   7.6525234e+02   7.7767240e+02   7.8990820e+02   7.9770023e+02   8.0313893e+02   8.0793394e+02   8.1302503e+02   8.1979126e+02   8.3422710e+02   8.5151401e+02   8.7662179e+02   9.0266506e+02   9.3246549e+02   9.6247280e+02   9.9277965e+02   1.0231103e+03   1.0536164e+03   1.0841324e+03   1.1146823e+03   1.1452404e+03   1.1759348e+03   1.2066356e+03   1.2373478e+03   1.2680607e+03   1.2987804e+03   1.3295002e+03   1.3602139e+03   1.3909244e+03   1.4215748e+03   1.4522228e+03   1.4828671e+03   1.5135105e+03   1.5441378e+03   1.5747638e+03   1.6053678e+03   1.6359601e+03   1.6663226e+03   1.6966755e+03   1.7270260e+03   1.7573649e+03   1.7873827e+03   1.8174152e+03   1.8482823e+03   1.8796865e+03   1.9304777e+03   1.9817150e+03   2.0333338e+03   2.0849563e+03   2.1363918e+03   2.1878272e+03   2.2393256e+03   2.2908340e+03   2.3434879e+03   2.3961678e+03   2.4490088e+03   2.5019136e+03   2.5562050e+03   2.6103857e+03   2.6607618e+03   2.7109823e+03
-1.1932687e+03  -1.1222646e+03  -1.0414364e+03  -9.5790060e+02  -8.7547667e+02  -7.9431217e+02  -7.1322864e+02  -6.3218847e+02  -5.5113498e+02  -4.7009160e+02  -3.8909875e+02  -3.4867600e+02  -3.0825325e+02  -2.6800129e+02  -2.2774933e+02  -2.0779026e+02  -1.8783120e+02  -1.6787213e+02  -1.4791307e+02  -1.2847114e+02  -1.0902920e+02  -8.9587267e+01  -7.0145333e+01  -5.1598764e+01  -3.3052195e+01  -1.4505625e+01   4.0409438e+00   2.1175987e+01   3.8311029e+01   5.5446072e+01   7.2581115e+01   8.8456529e+01   1.0433194e+02   1.2020736e+02   1.3608277e+02   1.5168337e+02   1.6728397e+02   1.8288456e+02   1.9848516e+02   2.1322937e+02   2.2797359e+02   2.4271780e+02   2.5746201e+02   2.7122582e+02   2.8498963e+02   2.9875344e+02   3.1251725e+02   3.2598815e+02   3.3945905e+02   3.5292994e+02   3.6640084e+02   3.7978376e+02   3.9316667e+02   4.0654959e+02   4.1993251e+02   4.3325407e+02   4.4657563e+02   4.5989718e+02   4.7321874e+02   4.8638327e+02   4.9954780e+02   5.1271233e+02   5.2587686e+02   5.3848833e+02   5.5109979e+02   5.6371126e+02   5.7632273e+02   5.8834706e+02   6.0037140e+02   6.1239574e+02   6.2442007e+02   6.3446933e+02   6.4451858e+02   6.5456783e+02   6.6461709e+02   6.7947528e+02   6.9433346e+02   7.0689100e+02   7.1944854e+02   7.3731446e+02   7.5203841e+02   7.6506271e+02   7.7757467e+02   7.9003477e+02   7.9786935e+02   8.0327105e+02   8.0803299e+02   8.1308052e+02   8.1982425e+02   8.3422518e+02   8.5146579e+02   8.7664487e+02   9.0274963e+02   9.3257999e+02   9.6261115e+02   9.9293042e+02   1.0232727e+03   1.0537885e+03   1.0843140e+03   1.1148719e+03   1.1454377e+03   1.1761394e+03   1.2068473e+03   1.2375659e+03   1.2682853e+03   1.2990112e+03   1.3297374e+03   1.3604577e+03   1.3911750e+03   1.4218322e+03   1.4524869e+03   1.4831379e+03   1.5137879e+03   1.5444218e+03   1.5750543e+03   1.6056660e+03   1.6362661e+03   1.6666371e+03   1.6969984e+03   1.7273570e+03   1.7577042e+03   1.7877351e+03   1.8177803e+03   1.8486334e+03   1.8800192e+03   1.9308799e+03   1.9821832e+03   2.0338385e+03   2.0854967e+03   2.1369571e+03   2.1884171e+03   2.2399322e+03   2.2914562e+03   2.3440966e+03   2.3967631e+03   2.4495882e+03   2.5024876e+03   2.5569351e+03   2.6112365e+03   2.6615437e+03   2.7117370e+03
-1.1946856e+03  -1.1219262e+03  -1.0410690e+03  -9.5772403e+02  -8.7531549e+02  -7.9414819e+02  -7.1305201e+02  -6.3200279e+02  -5.5093858e+02  -4.6988451e+02  -3.8888370e+02  -3.4846114e+02  -3.0803859e+02  -2.6779615e+02  -2.2755370e+02  -2.0760682e+02  -1.8765993e+02  -1.6771305e+02  -1.4776617e+02  -1.2834990e+02  -1.0893363e+02  -8.9517352e+01  -7.0101080e+01  -5.1587497e+01  -3.3073914e+01  -1.4560332e+01   3.9532513e+00   2.1071214e+01   3.8189177e+01   5.5307139e+01   7.2425102e+01   8.8338946e+01   1.0425279e+02   1.2016664e+02   1.3608048e+02   1.5174311e+02   1.6740574e+02   1.8306838e+02   1.9873101e+02   2.1350513e+02   2.2827925e+02   2.4305336e+02   2.5782748e+02   2.7160472e+02   2.8538195e+02   2.9915919e+02   3.1293643e+02   3.2640897e+02   3.3988151e+02   3.5335405e+02   3.6682659e+02   3.8019678e+02   3.9356697e+02   4.0693716e+02   4.2030735e+02   4.3359546e+02   4.4688357e+02   4.6017168e+02   4.7345979e+02   4.8661550e+02   4.9977121e+02   5.1292693e+02   5.2608264e+02   5.3870125e+02   5.5131985e+02   5.6393846e+02   5.7655707e+02   5.8852552e+02   6.0049396e+02   6.1246240e+02   6.2443085e+02   6.3444712e+02   6.4446339e+02   6.5447967e+02   6.6449594e+02   6.7933519e+02   6.9417445e+02   7.0669421e+02   7.1921398e+02   7.3707871e+02   7.5181180e+02   7.6488044e+02   7.7751279e+02   7.9023307e+02   7.9810100e+02   8.0345783e+02   8.0818534e+02   8.1319285e+02   8.1991456e+02   8.3426115e+02   8.5144029e+02   8.7668023e+02   9.0284332e+02   9.3270191e+02   9.6275563e+02   9.9308675e+02   1.0234401e+03   1.0539653e+03   1.0844999e+03   1.1150655e+03   1.1456389e+03   1.1763475e+03   1.2070622e+03   1.2377871e+03   1.2685127e+03   1.2992447e+03   1.3299770e+03   1.3607039e+03   1.3914278e+03   1.4220916e+03   1.4527529e+03   1.4834103e+03   1.5140668e+03   1.5447071e+03   1.5753461e+03   1.6059652e+03   1.6365729e+03   1.6669521e+03   1.6973218e+03   1.7276883e+03   1.7580436e+03   1.7880872e+03   1.8181449e+03   1.8489865e+03   1.8803570e+03   1.9312836e+03   1.9826503e+03   2.0343421e+03   2.0860360e+03   2.1375210e+03   2.1890055e+03   2.2405373e+03   2.2920771e+03   2.3447028e+03   2.3973548e+03   2.4501625e+03   2.5030545e+03   2.5576998e+03   2.6121662e+03   2.6623670e+03   2.7124917e+03
-1.1961024e+03  -1.1214488e+03  -1.0406883e+03  -9.5753481e+02  -8.7514810e+02  -7.9397891e+02  -7.1287158e+02  -6.3181356e+02  -5.5073873e+02  -4.6967401e+02  -3.8866519e+02  -3.4824270e+02  -3.0782020e+02  -2.6758704e+02  -2.2735387e+02  -2.0741959e+02  -1.8748531e+02  -1.6755103e+02  -1.4761675e+02  -1.2822746e+02  -1.0883817e+02  -8.9448881e+01  -7.0059591e+01  -5.1579550e+01  -3.3099510e+01  -1.4619469e+01   3.8605711e+00   2.0964207e+01   3.8067844e+01   5.5171480e+01   7.2275116e+01   8.8232004e+01   1.0418889e+02   1.2014578e+02   1.3610267e+02   1.5182790e+02   1.6755313e+02   1.8327837e+02   1.9900360e+02   2.1380566e+02   2.2860771e+02   2.4340976e+02   2.5821182e+02   2.7200187e+02   2.8579192e+02   2.9958198e+02   3.1337203e+02   3.2684616e+02   3.4032028e+02   3.5379440e+02   3.6726853e+02   3.8062559e+02   3.9398264e+02   4.0733970e+02   4.2069675e+02   4.3395114e+02   4.4720554e+02   4.6045993e+02   4.7371433e+02   4.8685990e+02   5.0000547e+02   5.1315105e+02   5.2629662e+02   5.3892382e+02   5.5155103e+02   5.6417823e+02   5.7680544e+02   5.8872183e+02   6.0063821e+02   6.1255460e+02   6.2447098e+02   6.3445435e+02   6.4443772e+02   6.5442108e+02   6.6440445e+02   6.7922929e+02   6.9405413e+02   7.0652801e+02   7.1900189e+02   7.3686198e+02   7.5160374e+02   7.6472426e+02   7.7749820e+02   7.9042291e+02   7.9834165e+02   8.0367518e+02   8.0836783e+02   8.1334926e+02   8.2002970e+02   8.3425961e+02   8.5145122e+02   8.7672717e+02   9.0295486e+02   9.3283054e+02   9.6290529e+02   9.9324700e+02   1.0236112e+03   1.0541449e+03   1.0846883e+03   1.1152612e+03   1.1458421e+03   1.1765571e+03   1.2072784e+03   1.2380093e+03   1.2687409e+03   1.2994789e+03   1.3302171e+03   1.3609502e+03   1.3916805e+03   1.4223508e+03   1.4530185e+03   1.4836823e+03   1.5143451e+03   1.5449916e+03   1.5756368e+03   1.6062630e+03   1.6368777e+03   1.6672656e+03   1.6976435e+03   1.7280175e+03   1.7583802e+03   1.7884368e+03   1.8185077e+03   1.8493403e+03   1.8807208e+03   1.9316862e+03   1.9831138e+03   2.0348418e+03   2.0865712e+03   2.1380811e+03   2.1895900e+03   2.2411386e+03   2.2926943e+03   2.3453029e+03   2.3979393e+03   2.4507281e+03   2.5036087e+03   2.5583865e+03   2.6129711e+03   2.6631449e+03   2.7132464e+03
-1.1971105e+03  -1.1209175e+03  -1.0403000e+03  -9.5733522e+02  -8.7497607e+02  -7.9380615e+02  -7.1268863e+02  -6.3162205e+02  -5.5053672e+02  -4.6946140e+02  -3.8844458e+02  -3.4802205e+02  -3.0759952e+02  -2.6737547e+02  -2.2715143e+02  -2.0723007e+02  -1.8730872e+02  -1.6738736e+02  -1.4746601e+02  -1.2810482e+02  -1.0874363e+02  -8.9382445e+01  -7.0021257e+01  -5.1575177e+01  -3.3129097e+01  -1.4683016e+01   3.7630640e+00   2.0854593e+01   3.7946123e+01   5.5037652e+01   7.2129181e+01   8.8132098e+01   1.0413502e+02   1.2013793e+02   1.3614085e+02   1.5192848e+02   1.6771610e+02   1.8350373e+02   1.9929136e+02   2.1411994e+02   2.2894851e+02   2.4377709e+02   2.5860567e+02   2.7240825e+02   2.8621084e+02   3.0001342e+02   3.1381601e+02   3.2729161e+02   3.4076721e+02   3.5424281e+02   3.6771841e+02   3.8106210e+02   3.9440580e+02   4.0774949e+02   4.2109318e+02   4.3431451e+02   4.4753584e+02   4.6075717e+02   4.7397850e+02   4.8711278e+02   5.0024706e+02   5.1338134e+02   5.2651562e+02   5.3915180e+02   5.5178799e+02   5.6442417e+02   5.7706036e+02   5.8892858e+02   6.0079680e+02   6.1266503e+02   6.2453325e+02   6.3448550e+02   6.4443774e+02   6.5438999e+02   6.6434224e+02   6.7915530e+02   6.9396835e+02   7.0638810e+02   7.1880786e+02   7.3666270e+02   7.5142026e+02   7.6460452e+02   7.7751879e+02   7.9056970e+02   7.9853962e+02   8.0386693e+02   8.0853240e+02   8.1348744e+02   8.2011562e+02   8.3420396e+02   8.5149666e+02   8.7678603e+02   9.0308402e+02   9.3296589e+02   9.6306005e+02   9.9341121e+02   1.0237860e+03   1.0543275e+03   1.0848792e+03   1.1154592e+03   1.1460477e+03   1.1767686e+03   1.2074961e+03   1.2382329e+03   1.2689704e+03   1.2997141e+03   1.3304580e+03   1.3611972e+03   1.3919334e+03   1.4226104e+03   1.4532843e+03   1.4839542e+03   1.5146231e+03   1.5452758e+03   1.5759271e+03   1.6065602e+03   1.6371811e+03   1.6675780e+03   1.6979639e+03   1.7283454e+03   1.7587146e+03   1.7887846e+03   1.8188698e+03   1.8496949e+03   1.8811120e+03   1.9320889e+03   1.9835742e+03   2.0353382e+03   2.0871028e+03   2.1386375e+03   2.1901707e+03   2.2417362e+03   2.2933079e+03   2.3458973e+03   2.3985172e+03   2.4512858e+03   2.5041534e+03   2.5589865e+03   2.6136161e+03   2.6638532e+03   2.7140010e+03
-1.1981186e+03  -1.1204172e+03  -1.0398995e+03  -9.5712119e+02  -8.7479819e+02  -7.9362888e+02  -7.1250239e+02  -6.3142747e+02  -5.5033175e+02  -4.6924587e+02  -3.8822099e+02  -3.4779822e+02  -3.0737544e+02  -2.6716016e+02  -2.2694488e+02  -2.0703689e+02  -1.8712889e+02  -1.6722090e+02  -1.4731290e+02  -1.2798124e+02  -1.0864957e+02  -8.9317906e+01  -6.9986241e+01  -5.1574726e+01  -3.3163210e+01  -1.4751695e+01   3.6598205e+00   2.0741979e+01   3.7824137e+01   5.4906296e+01   7.1988454e+01   8.8041588e+01   1.0409472e+02   1.2014786e+02   1.3620099e+02   1.5205083e+02   1.6790067e+02   1.8375052e+02   1.9960036e+02   2.1445348e+02   2.2930660e+02   2.4415973e+02   2.5901285e+02   2.7282790e+02   2.8664295e+02   3.0045800e+02   3.1427305e+02   3.2775025e+02   3.4122744e+02   3.5470463e+02   3.6818183e+02   3.8151222e+02   3.9484260e+02   4.0817299e+02   4.2150337e+02   4.3469248e+02   4.4788158e+02   4.6107069e+02   4.7425980e+02   4.8738139e+02   5.0050299e+02   5.1362458e+02   5.2674617e+02   5.3939195e+02   5.5203773e+02   5.6468350e+02   5.7732928e+02   5.8915409e+02   6.0097890e+02   6.1280372e+02   6.2462853e+02   6.3455399e+02   6.4447944e+02   6.5440490e+02   6.6433036e+02   6.7913099e+02   6.9393161e+02   7.0628769e+02   7.1864377e+02   7.3649692e+02   7.5128694e+02   7.6455669e+02   7.7759177e+02   7.9066317e+02   7.9866986e+02   8.0399322e+02   8.0862872e+02   8.1357046e+02   8.2014485e+02   8.3426249e+02   8.5175640e+02   8.7698657e+02   9.0335653e+02   9.3321905e+02   9.6331687e+02   9.9366570e+02   1.0240427e+03   1.0545911e+03   1.0851503e+03   1.1157366e+03   1.1463333e+03   1.1770597e+03   1.2077934e+03   1.2385358e+03   1.2692788e+03   1.3000275e+03   1.3307767e+03   1.3615217e+03   1.3922645e+03   1.4229495e+03   1.4536299e+03   1.4843062e+03   1.5149813e+03   1.5456403e+03   1.5762978e+03   1.6069378e+03   1.6375644e+03   1.6679721e+03   1.6983663e+03   1.7287552e+03   1.7591312e+03   1.7892167e+03   1.8193186e+03   1.8501469e+03   1.8816781e+03   1.9326173e+03   1.9841527e+03   2.0359549e+03   2.0877556e+03   2.1393170e+03   2.1908759e+03   2.2424590e+03   2.2940433e+03   2.3466022e+03   2.3992012e+03   2.4519464e+03   2.5047804e+03   2.5595589e+03   2.6141482e+03   2.6645085e+03   2.7147557e+03
-1.1976146e+03  -1.1199595e+03  -1.0394920e+03  -9.5689563e+02  -8.7461617e+02  -7.9344902e+02  -7.1231416e+02  -6.3123111e+02  -5.5012511e+02  -4.6902876e+02  -3.8799580e+02  -3.4757265e+02  -3.0714949e+02  -2.6694275e+02  -2.2673600e+02  -2.0684169e+02  -1.8694738e+02  -1.6705307e+02  -1.4715876e+02  -1.2785779e+02  -1.0855683e+02  -8.9255862e+01  -6.9954896e+01  -5.1578406e+01  -3.3201917e+01  -1.4825427e+01   3.5510626e+00   2.0625938e+01   3.7700814e+01   5.4775689e+01   7.1850565e+01   8.7956276e+01   1.0406199e+02   1.2016770e+02   1.3627341e+02   1.5218443e+02   1.6809545e+02   1.8400646e+02   1.9991748e+02   2.1479400e+02   2.2967052e+02   2.4454704e+02   2.5942356e+02   2.7325138e+02   2.8707920e+02   3.0090702e+02   3.1473484e+02   3.2821370e+02   3.4169257e+02   3.5517143e+02   3.6865029e+02   3.8196756e+02   3.9528483e+02   4.0860210e+02   4.2191937e+02   4.3507780e+02   4.4823623e+02   4.6139466e+02   4.7455309e+02   4.8766078e+02   5.0076847e+02   5.1387616e+02   5.2698385e+02   5.3963902e+02   5.5229419e+02   5.6494937e+02   5.7760454e+02   5.8939045e+02   6.0117637e+02   6.1296229e+02   6.2474820e+02   6.3465234e+02   6.4455648e+02   6.5446062e+02   6.6436476e+02   6.7915036e+02   6.9393597e+02   7.0622282e+02   7.1850967e+02   7.3636966e+02   7.5121260e+02   7.6458102e+02   7.7770434e+02   7.9071775e+02   7.9873332e+02   8.0404232e+02   8.0864186e+02   8.1356977e+02   8.2007867e+02   8.3444132e+02   8.5220710e+02   8.7731301e+02   9.0374016e+02   9.3355380e+02   9.6363966e+02   9.9397423e+02   1.0243438e+03   1.0548976e+03   1.0854629e+03   1.1160552e+03   1.1466602e+03   1.1773916e+03   1.2081312e+03   1.2388790e+03   1.2696271e+03   1.3003804e+03   1.3311346e+03   1.3618853e+03   1.3926346e+03   1.4233285e+03   1.4540157e+03   1.4846985e+03   1.5153797e+03   1.5460453e+03   1.5767090e+03   1.6073559e+03   1.6379875e+03   1.6684069e+03   1.6988098e+03   1.7292063e+03   1.7595882e+03   1.7896904e+03   1.8198120e+03   1.8506562e+03   1.8823524e+03   1.9332087e+03   1.9847859e+03   2.0366277e+03   2.0884658e+03   2.1400556e+03   2.1916418e+03   2.2432430e+03   2.2948404e+03   2.3473630e+03   2.3999378e+03   2.4526584e+03   2.5054492e+03   2.5601005e+03   2.6145924e+03   2.6651219e+03   2.7155104e+03
-1.1971105e+03  -1.1195818e+03  -1.0390707e+03  -9.5665534e+02  -8.7442878e+02  -7.9326555e+02  -7.1212325e+02  -6.3103221e+02  -5.4991605e+02  -4.6880926e+02  -3.8776812e+02  -3.4734429e+02  -3.0692047e+02  -2.6672180e+02  -2.2652312e+02  -2.0664296e+02  -1.8676280e+02  -1.6688264e+02  -1.4700248e+02  -1.2773368e+02  -1.0846489e+02  -8.9196095e+01  -6.9927300e+01  -5.1586413e+01  -3.3245525e+01  -1.4904638e+01   3.4362499e+00   2.0506548e+01   3.7576846e+01   5.4647145e+01   7.1717443e+01   8.7879407e+01   1.0404137e+02   1.2020334e+02   1.3636530e+02   1.5233659e+02   1.6830789e+02   1.8427919e+02   2.0025048e+02   2.1514839e+02   2.3004630e+02   2.4494421e+02   2.5984212e+02   2.7368313e+02   2.8752414e+02   3.0136516e+02   3.1520617e+02   3.2868704e+02   3.4216790e+02   3.5564877e+02   3.6912963e+02   3.8243430e+02   3.9573898e+02   4.0904365e+02   4.2234833e+02   4.3547794e+02   4.4860754e+02   4.6173714e+02   4.7486675e+02   4.8795942e+02   5.0105208e+02   5.1414475e+02   5.2723742e+02   5.3990223e+02   5.5256704e+02   5.6523184e+02   5.7789665e+02   5.8964830e+02   6.0139996e+02   6.1315161e+02   6.2490326e+02   6.3479184e+02   6.4468042e+02   6.5456899e+02   6.6445757e+02   6.7922441e+02   6.9399125e+02   7.0620906e+02   7.1842687e+02   7.3631025e+02   7.5123124e+02   7.6471504e+02   7.7790805e+02   7.9079075e+02   7.9877072e+02   8.0403787e+02   8.0859614e+02   8.1347353e+02   8.2001119e+02   8.3479258e+02   8.5286027e+02   8.7778657e+02   9.0424306e+02   9.3397834e+02   9.6403276e+02   9.9433828e+02   1.0246884e+03   1.0552452e+03   1.0858156e+03   1.1164130e+03   1.1470265e+03   1.1777624e+03   1.2085077e+03   1.2392607e+03   1.2700137e+03   1.3007711e+03   1.3315300e+03   1.3622864e+03   1.3930424e+03   1.4237456e+03   1.4544402e+03   1.4851296e+03   1.5158172e+03   1.5464896e+03   1.5771596e+03   1.6078133e+03   1.6384495e+03   1.6688815e+03   1.6992936e+03   1.7296977e+03   1.7600848e+03   1.7902043e+03   1.8203495e+03   1.8512248e+03   1.8831257e+03   1.9338646e+03   1.9854730e+03   2.0373563e+03   2.0892336e+03   2.1408540e+03   2.1924691e+03   2.2440894e+03   2.2957009e+03   2.3481824e+03   2.4007290e+03   2.4534246e+03   2.5061646e+03   2.5606363e+03   2.6149929e+03   2.6657129e+03   2.7162651e+03
-1.1976146e+03  -1.1192575e+03  -1.0386385e+03  -9.5640387e+02  -8.7423781e+02  -7.9308045e+02  -7.1193098e+02  -6.3083209e+02  -5.4970588e+02  -4.6858872e+02  -3.8753938e+02  -3.4711469e+02  -3.0669000e+02  -2.6649910e+02  -2.2630820e+02  -2.0644252e+02  -1.8657683e+02  -1.6671115e+02  -1.4684547e+02  -1.2761001e+02  -1.0837455e+02  -8.9139097e+01  -6.9903639e+01  -5.1598766e+01  -3.3293893e+01  -1.4989021e+01   3.3158522e+00   2.0383525e+01   3.7451197e+01   5.4518870e+01   7.1586542e+01   8.7806442e+01   1.0402634e+02   1.2024624e+02   1.3646614e+02   1.5249589e+02   1.6852565e+02   1.8455541e+02   2.0058516e+02   2.1550353e+02   2.3042190e+02   2.4534028e+02   2.6025865e+02   2.7411365e+02   2.8796866e+02   3.0182366e+02   3.1567866e+02   3.2916180e+02   3.4264494e+02   3.5612808e+02   3.6961122e+02   3.8290392e+02   3.9619662e+02   4.0948931e+02   4.2278201e+02   4.3588509e+02   4.4898816e+02   4.6209123e+02   4.7519431e+02   4.8827104e+02   5.0134778e+02   5.1442452e+02   5.2750125e+02   5.4017533e+02   5.5284940e+02   5.6552347e+02   5.7819755e+02   5.8991885e+02   6.0164015e+02   6.1336145e+02   6.2508275e+02   6.3496137e+02   6.4483999e+02   6.5471860e+02   6.6459722e+02   6.7934199e+02   6.9408675e+02   7.0624395e+02   7.1840114e+02   7.3632655e+02   7.5134588e+02   7.6495171e+02   7.7818769e+02   7.9090310e+02   7.9884304e+02   8.0405490e+02   8.0854935e+02   8.1340850e+02   8.2003497e+02   8.3528235e+02   8.5366359e+02   8.7838002e+02   9.0483427e+02   9.3446620e+02   9.6447159e+02   9.9473467e+02   1.0250542e+03   1.0556117e+03   1.0861858e+03   1.1167880e+03   1.1474096e+03   1.1781497e+03   1.2089005e+03   1.2396586e+03   1.2704162e+03   1.3011775e+03   1.3319408e+03   1.3627030e+03   1.3934655e+03   1.4241784e+03   1.4548807e+03   1.4855769e+03   1.5162711e+03   1.5469503e+03   1.5776269e+03   1.6082873e+03   1.6389278e+03   1.6693727e+03   1.6997946e+03   1.7302064e+03   1.7605980e+03   1.7907344e+03   1.8209066e+03   1.8518274e+03   1.8839517e+03   1.9345524e+03   1.9861823e+03   2.0381084e+03   2.0900265e+03   2.1416795e+03   2.1933250e+03   2.2449652e+03   2.2965927e+03   2.3490305e+03   2.4015460e+03   2.4542167e+03   2.5069049e+03   2.5611706e+03   2.6153728e+03   2.6662923e+03   2.7170198e+03
-1.1981186e+03  -1.1189162e+03  -1.0381995e+03  -9.5613642e+02  -8.7404190e+02  -7.9289262e+02  -7.1173675e+02  -6.3063005e+02  -5.4949388e+02  -4.6836640e+02  -3.8730869e+02  -3.4688275e+02  -3.0645682e+02  -2.6627312e+02  -2.2608943e+02  -2.0623872e+02  -1.8638800e+02  -1.6653729e+02  -1.4668658e+02  -1.2748588e+02  -1.0828517e+02  -8.9084471e+01  -6.9883768e+01  -5.1615293e+01  -3.3346819e+01  -1.5078344e+01   3.1901302e+00   2.0257890e+01   3.7325650e+01   5.4393410e+01   7.1461170e+01   8.7742150e+01   1.0402313e+02   1.2030411e+02   1.3658509e+02   1.5267181e+02   1.6875853e+02   1.8484525e+02   2.0093197e+02   2.1586869e+02   2.3080541e+02   2.4574212e+02   2.6067884e+02   2.7454848e+02   2.8841812e+02   3.0228776e+02   3.1615740e+02   3.2964336e+02   3.4312932e+02   3.5661527e+02   3.7010123e+02   3.8338291e+02   3.9666460e+02   4.0994628e+02   4.2322796e+02   4.3630711e+02   4.4938627e+02   4.6246542e+02   4.7554458e+02   4.8860501e+02   5.0166545e+02   5.1472589e+02   5.2778632e+02   5.4046992e+02   5.5315352e+02   5.6583713e+02   5.7852073e+02   5.9021484e+02   6.0190896e+02   6.1360307e+02   6.2529719e+02   6.3516836e+02   6.4503953e+02   6.5491069e+02   6.6478186e+02   6.7950684e+02   6.9423182e+02   7.0634920e+02   7.1846657e+02   7.3645696e+02   7.5159050e+02   7.6532389e+02   7.7863374e+02   7.9104920e+02   7.9885903e+02   8.0411921e+02   8.0860208e+02   8.1346379e+02   8.2024477e+02   8.3599407e+02   8.5464850e+02   8.7914730e+02   9.0557337e+02   9.3507319e+02   9.6500729e+02   9.9521310e+02   1.0254913e+03   1.0560447e+03   1.0866202e+03   1.1172262e+03   1.1478555e+03   1.1785996e+03   1.2093553e+03   1.2401161e+03   1.2708725e+03   1.3016253e+03   1.3323843e+03   1.3631459e+03   1.3939122e+03   1.4246392e+03   1.4553507e+03   1.4860539e+03   1.5167549e+03   1.5474414e+03   1.5781246e+03   1.6087917e+03   1.6394363e+03   1.6698946e+03   1.7003267e+03   1.7307464e+03   1.7611420e+03   1.7912951e+03   1.8214980e+03   1.8524785e+03   1.8848535e+03   1.9352957e+03   1.9869368e+03   2.0389073e+03   2.0908685e+03   2.1425569e+03   2.1942352e+03   2.2458970e+03   2.2975415e+03   2.3499319e+03   2.4024129e+03   2.4550581e+03   2.5076900e+03   2.5617530e+03   2.6158086e+03   2.6668919e+03   2.7177745e+03
-1.1976146e+03  -1.1185639e+03  -1.0377580e+03  -9.5585728e+02  -8.7384283e+02  -7.9270409e+02  -7.1154186e+02  -6.3042741e+02  -5.4928138e+02  -4.6814364e+02  -3.8707749e+02  -3.4665004e+02  -3.0622260e+02  -2.6604575e+02  -2.2586891e+02  -2.0603349e+02  -1.8619807e+02  -1.6636266e+02  -1.4652724e+02  -1.2736235e+02  -1.0819745e+02  -8.9032560e+01  -6.9867667e+01  -5.1635812e+01  -3.3403956e+01  -1.5172101e+01   3.0597540e+00   2.0129434e+01   3.7199115e+01   5.4268795e+01   7.1338475e+01   8.7681529e+01   1.0402458e+02   1.2036764e+02   1.3671069e+02   1.5285190e+02   1.6899312e+02   1.8513434e+02   2.0127555e+02   2.1622985e+02   2.3118414e+02   2.4613843e+02   2.6109273e+02   2.7497806e+02   2.8886338e+02   3.0274870e+02   3.1663403e+02   3.3012327e+02   3.4361251e+02   3.5710176e+02   3.7059100e+02   3.8386268e+02   3.9713437e+02   4.1040605e+02   4.2367774e+02   4.3673576e+02   4.4979379e+02   4.6285181e+02   4.7590984e+02   4.8895380e+02   5.0199777e+02   5.1504174e+02   5.2808570e+02   5.4077847e+02   5.5347123e+02   5.6616400e+02   5.7885677e+02   5.9052549e+02   6.0219421e+02   6.1386293e+02   6.2553165e+02   6.3539730e+02   6.4526296e+02   6.5512861e+02   6.6499426e+02   6.7970610e+02   6.9441793e+02   7.0652535e+02   7.1863278e+02   7.3670572e+02   7.5195639e+02   7.6580907e+02   7.7914525e+02   7.9110081e+02   7.9888877e+02   8.0426620e+02   8.0879665e+02   8.1368040e+02   8.2061930e+02   8.3686760e+02   8.5576123e+02   8.8004778e+02   9.0641596e+02   9.3575628e+02   9.6559970e+02   9.9573556e+02   1.0259631e+03   1.0565076e+03   1.0870823e+03   1.1176910e+03   1.1483273e+03   1.1790751e+03   1.2098350e+03   1.2405964e+03   1.2713461e+03   1.3020810e+03   1.3328289e+03   1.3635860e+03   1.3943550e+03   1.4250997e+03   1.4558218e+03   1.4865325e+03   1.5172406e+03   1.5479343e+03   1.5786244e+03   1.6092981e+03   1.6399466e+03   1.6704183e+03   1.7008610e+03   1.7312887e+03   1.7616877e+03   1.7918567e+03   1.8220938e+03   1.8531456e+03   1.8857795e+03   1.9360526e+03   1.9876960e+03   2.0397120e+03   2.0917180e+03   2.1434440e+03   2.1951569e+03   2.2468417e+03   2.2985050e+03   2.3508468e+03   2.4032910e+03   2.4559107e+03   2.5084883e+03   2.5623745e+03   2.6163076e+03   2.6675173e+03   2.7185292e+03
-1.1971105e+03  -1.1182079e+03  -1.0373105e+03  -9.5556408e+02  -8.7363898e+02  -7.9251374e+02  -7.1134586e+02  -6.3022356e+02  -5.4906772e+02  -4.6791976e+02  -3.8684495e+02  -3.4641553e+02  -3.0598610e+02  -2.6581543e+02  -2.2564476e+02  -2.0582514e+02  -1.8600553e+02  -1.6618591e+02  -1.4636630e+02  -1.2723844e+02  -1.0811059e+02  -8.8982731e+01  -6.9854874e+01  -5.1659643e+01  -3.3464413e+01  -1.5269182e+01   2.9260484e+00   2.0000403e+01   3.7074758e+01   5.4149113e+01   7.1223468e+01   8.7631198e+01   1.0403893e+02   1.2044666e+02   1.3685439e+02   1.5304818e+02   1.6924196e+02   1.8543575e+02   2.0162954e+02   2.1659916e+02   2.3156877e+02   2.4653839e+02   2.6150801e+02   2.7540957e+02   2.8931113e+02   3.0321269e+02   3.1711425e+02   3.3060749e+02   3.4410073e+02   3.5759397e+02   3.7108721e+02   3.8435024e+02   3.9761327e+02   4.1087629e+02   4.2413932e+02   4.3717924e+02   4.5021916e+02   4.6325909e+02   4.7629901e+02   4.8932723e+02   5.0235546e+02   5.1538369e+02   5.2841191e+02   5.4111430e+02   5.5381669e+02   5.6651908e+02   5.7922147e+02   5.9086525e+02   6.0250904e+02   6.1415282e+02   6.2579661e+02   6.3565330e+02   6.4550999e+02   6.5536668e+02   6.6522337e+02   6.7994158e+02   6.9465979e+02   7.0680394e+02   7.1894808e+02   7.3711571e+02   7.5247793e+02   7.6643556e+02   7.7971728e+02   7.9121043e+02   7.9898643e+02   8.0452216e+02   8.0916830e+02   8.1413512e+02   8.2151930e+02   8.3780384e+02   8.5698471e+02   8.8107739e+02   9.0736048e+02   9.3651705e+02   9.6625027e+02   9.9630373e+02   1.0264723e+03   1.0570026e+03   1.0875738e+03   1.1181838e+03   1.1488263e+03   1.1795775e+03   1.2103408e+03   1.2411002e+03   1.2718369e+03   1.3025437e+03   1.3332727e+03   1.3640204e+03   1.3947912e+03   1.4255571e+03   1.4562916e+03   1.4870102e+03   1.5177255e+03   1.5484268e+03   1.5791238e+03   1.6098040e+03   1.6404566e+03   1.6709415e+03   1.7013950e+03   1.7318308e+03   1.7622329e+03   1.7924167e+03   1.8226909e+03   1.8538241e+03   1.8867182e+03   1.9368210e+03   1.9884584e+03   2.0405204e+03   2.0925732e+03   2.1443391e+03   2.1960884e+03   2.2477977e+03   2.2994812e+03   2.3517737e+03   2.4041791e+03   2.4567726e+03   2.5092990e+03   2.5630485e+03   2.6168926e+03   2.6681797e+03   2.7192838e+03
-1.1971105e+03  -1.1178180e+03  -1.0368581e+03  -9.5526136e+02  -8.7343226e+02  -7.9232361e+02  -7.1115001e+02  -6.3001981e+02  -5.4885421e+02  -4.6769609e+02  -3.8661248e+02  -3.4618074e+02  -3.0574900e+02  -2.6558411e+02  -2.2541923e+02  -2.0561572e+02  -1.8581220e+02  -1.6600869e+02  -1.4620517e+02  -1.2711517e+02  -1.0802517e+02  -8.8935166e+01  -6.9845165e+01  -5.1686444e+01  -3.3527723e+01  -1.5369002e+01   2.7897190e+00   1.9870469e+01   3.6951220e+01   5.4031970e+01   7.1112721e+01   8.7585431e+01   1.0405814e+02   1.2053085e+02   1.3700356e+02   1.5324696e+02   1.6949036e+02   1.8573377e+02   2.0197717e+02   2.1696147e+02   2.3194577e+02   2.4693007e+02   2.6191437e+02   2.7583321e+02   2.8975206e+02   3.0367091e+02   3.1758975e+02   3.3108762e+02   3.4458548e+02   3.5808335e+02   3.7158122e+02   3.8483694e+02   3.9809267e+02   4.1134839e+02   4.2460411e+02   4.3762890e+02   4.5065369e+02   4.6367848e+02   4.7670327e+02   4.8971657e+02   5.0272988e+02   5.1574319e+02   5.2875649e+02   5.4146810e+02   5.5417971e+02   5.6689131e+02   5.7960292e+02   5.9122039e+02   6.0283785e+02   6.1445532e+02   6.2607279e+02   6.3591782e+02   6.4576284e+02   6.5560787e+02   6.6545290e+02   6.8020376e+02   6.9495463e+02   7.0718739e+02   7.1942016e+02   7.3768277e+02   7.5313287e+02   7.6713852e+02   7.8026004e+02   7.9132790e+02   7.9905053e+02   8.0478649e+02   8.0964440e+02   8.1500792e+02   8.2289493e+02   8.3882061e+02   8.5826902e+02   8.8220205e+02   9.0837575e+02   9.3732939e+02   9.6693606e+02   9.9689684e+02   1.0269995e+03   1.0575109e+03   1.0880762e+03   1.1186864e+03   1.1493340e+03   1.1800884e+03   1.2108543e+03   1.2416094e+03   1.2723280e+03   1.3029994e+03   1.3337035e+03   1.3644388e+03   1.3952108e+03   1.4260001e+03   1.4567487e+03   1.4874756e+03   1.5181985e+03   1.5489073e+03   1.5796113e+03   1.6102980e+03   1.6409547e+03   1.6714525e+03   1.7019169e+03   1.7323609e+03   1.7627659e+03   1.7929634e+03   1.8232770e+03   1.8544986e+03   1.8876437e+03   1.9375823e+03   1.9892073e+03   2.0413158e+03   2.0934170e+03   2.1452242e+03   2.1970114e+03   2.2487464e+03   2.3004515e+03   2.3526952e+03   2.4050603e+03   2.4576271e+03   2.5101083e+03   2.5637659e+03   2.6175561e+03   2.6688770e+03   2.7200385e+03
-1.1971105e+03  -1.1173291e+03  -1.0363907e+03  -9.5494438e+02  -8.7322087e+02  -7.9213253e+02  -7.1095399e+02  -6.2981564e+02  -5.4864028e+02  -4.6747202e+02  -3.8637931e+02  -3.4594470e+02  -3.0551009e+02  -2.6535025e+02  -2.2519041e+02  -2.0540350e+02  -1.8561658e+02  -1.6582967e+02  -1.4604275e+02  -1.2699148e+02  -1.0794022e+02  -8.8888951e+01  -6.9837685e+01  -5.1714926e+01  -3.3592166e+01  -1.5469407e+01   2.6533520e+00   1.9743308e+01   3.6833264e+01   5.3923220e+01   7.1013176e+01   8.7552919e+01   1.0409266e+02   1.2063241e+02   1.3717215e+02   1.5346294e+02   1.6975372e+02   1.8604451e+02   2.0233530e+02   2.1733186e+02   2.3232842e+02   2.4732497e+02   2.6232153e+02   2.7625785e+02   2.9019417e+02   3.0413050e+02   3.1806682e+02   3.3157014e+02   3.4507346e+02   3.5857678e+02   3.7208010e+02   3.8533018e+02   3.9858026e+02   4.1183033e+02   4.2508041e+02   4.3809318e+02   4.5110596e+02   4.6411874e+02   4.7713151e+02   4.9013166e+02   5.0313181e+02   5.1613197e+02   5.2913212e+02   5.4185365e+02   5.5457518e+02   5.6729671e+02   5.8001824e+02   5.9160685e+02   6.0319547e+02   6.1478408e+02   6.2637269e+02   6.3619788e+02   6.4602307e+02   6.5584826e+02   6.6567345e+02   6.8049778e+02   6.9532210e+02   7.0771560e+02   7.2010910e+02   7.3845291e+02   7.5395760e+02   7.6794141e+02   7.8079433e+02   7.9139272e+02   7.9900392e+02   8.0495562e+02   8.1027246e+02   8.1624180e+02   8.2463730e+02   8.3996619e+02   8.5949703e+02   8.8331386e+02   9.0939140e+02   9.3815438e+02   9.6763185e+02   9.9748684e+02   1.0275151e+03   1.0580041e+03   1.0885630e+03   1.1191728e+03   1.1498241e+03   1.1805817e+03   1.2113506e+03   1.2421031e+03   1.2728033e+03   1.3034374e+03   1.3341147e+03   1.3648332e+03   1.3956041e+03   1.4264149e+03   1.4571770e+03   1.4879126e+03   1.5186429e+03   1.5493593e+03   1.5800703e+03   1.6107641e+03   1.6414256e+03   1.6719349e+03   1.7024097e+03   1.7328623e+03   1.7632718e+03   1.7934830e+03   1.8238275e+03   1.8550982e+03   1.8884307e+03   1.9382643e+03   1.9899056e+03   2.0420623e+03   2.0942162e+03   2.1460656e+03   2.1978922e+03   2.2496563e+03   2.3013864e+03   2.3535863e+03   2.4059128e+03   2.4584509e+03   2.5108983e+03   2.5645119e+03   2.6182675e+03   2.6695873e+03   2.7207932e+03
-1.1966064e+03  -1.1167486e+03  -1.0359101e+03  -9.5461745e+02  -8.7300682e+02  -7.9194253e+02  -7.1075900e+02  -6.2961231e+02  -5.4842719e+02  -4.6724882e+02  -3.8614682e+02  -3.4570896e+02  -3.0527110e+02  -2.6511588e+02  -2.2496067e+02  -2.0519061e+02  -1.8542054e+02  -1.6565048e+02  -1.4588041e+02  -1.2686831e+02  -1.0785622e+02  -8.8844119e+01  -6.9832022e+01  -5.1744649e+01  -3.3657276e+01  -1.5569902e+01   2.5174709e+00   1.9618235e+01   3.6718998e+01   5.3819762e+01   7.0920526e+01   8.7526937e+01   1.0413335e+02   1.2073976e+02   1.3734617e+02   1.5368101e+02   1.7001585e+02   1.8635070e+02   2.0268554e+02   2.1769378e+02   2.3270203e+02   2.4771028e+02   2.6271852e+02   2.7667319e+02   2.9062786e+02   3.0458252e+02   3.1853719e+02   3.3204672e+02   3.4555624e+02   3.5906577e+02   3.7257530e+02   3.8582135e+02   3.9906741e+02   4.1231346e+02   4.2555951e+02   4.3856315e+02   4.5156678e+02   4.6457042e+02   4.7757406e+02   4.9056274e+02   5.0355142e+02   5.1654010e+02   5.2952878e+02   5.4225971e+02   5.5499063e+02   5.6772156e+02   5.8045249e+02   5.9200797e+02   6.0356345e+02   6.1511892e+02   6.2667440e+02   6.3647493e+02   6.4627547e+02   6.5607601e+02   6.6587654e+02   6.8082020e+02   6.9576387e+02   7.0838841e+02   7.2101295e+02   7.3941229e+02   7.5491619e+02   7.6878797e+02   7.8127923e+02   7.9137488e+02   7.9887532e+02   8.0509233e+02   8.1100362e+02   8.1768112e+02   8.2655339e+02   8.4124859e+02   8.6065591e+02   8.8437097e+02   9.1037832e+02   9.3897278e+02   9.6832446e+02   9.9806454e+02   1.0280108e+03   1.0584758e+03   1.0890296e+03   1.1196387e+03   1.1502922e+03   1.1810532e+03   1.2118256e+03   1.2425776e+03   1.2732606e+03   1.3038581e+03   1.3345079e+03   1.3652064e+03   1.3959734e+03   1.4268029e+03   1.4575769e+03   1.4883213e+03   1.5190589e+03   1.5497828e+03   1.5805010e+03   1.6112025e+03   1.6418694e+03   1.6723891e+03   1.7028737e+03   1.7333354e+03   1.7637512e+03   1.7939758e+03   1.8243433e+03   1.8556230e+03   1.8890779e+03   1.9388624e+03   1.9905556e+03   2.0427646e+03   2.0949744e+03   2.1468664e+03   2.1987336e+03   2.2505296e+03   2.3022872e+03   2.3544480e+03   2.4067378e+03   2.4592455e+03   2.5116688e+03   2.5652680e+03   2.6189952e+03   2.6702974e+03   2.7215479e+03
-1.1961024e+03  -1.1161398e+03  -1.0354030e+03  -9.5427840e+02  -8.7278837e+02  -7.9175247e+02  -7.1056486e+02  -6.2940945e+02  -5.4821447e+02  -4.6702598e+02  -3.8591433e+02  -3.4547261e+02  -3.0503089e+02  -2.6487954e+02  -2.2472819e+02  -2.0497542e+02  -1.8522266e+02  -1.6546989e+02  -1.4571712e+02  -1.2674455e+02  -1.0777198e+02  -8.8799412e+01  -6.9826843e+01  -5.1773606e+01  -3.3720369e+01  -1.5667132e+01   2.3861050e+00   1.9500550e+01   3.6614995e+01   5.3729441e+01   7.0843886e+01   8.7518452e+01   1.0419302e+02   1.2086758e+02   1.3754215e+02   1.5391849e+02   1.7029483e+02   1.8667118e+02   2.0304752e+02   2.1806476e+02   2.3308200e+02   2.4809925e+02   2.6311649e+02   2.7708923e+02   2.9106197e+02   3.0503471e+02   3.1900745e+02   3.3252408e+02   3.4604070e+02   3.5955732e+02   3.7307395e+02   3.8631793e+02   3.9956191e+02   4.1280588e+02   4.2604986e+02   4.3904763e+02   4.5204541e+02   4.6504318e+02   4.7804095e+02   4.9102080e+02   5.0400065e+02   5.1698049e+02   5.2996034e+02   5.4270087e+02   5.5544139e+02   5.6818192e+02   5.8092244e+02   5.9244014e+02   6.0395783e+02   6.1547553e+02   6.2699322e+02   6.3676130e+02   6.4652937e+02   6.5629744e+02   6.6606552e+02   6.8117844e+02   6.9629135e+02   7.0924275e+02   7.2219416e+02   7.4061297e+02   7.5605734e+02   7.6972640e+02   7.8176082e+02   7.9137382e+02   7.9878189e+02   8.0523688e+02   8.1175697e+02   8.1914852e+02   8.2845372e+02   8.4257319e+02   8.6170753e+02   8.8532699e+02   9.1130838e+02   9.3977145e+02   9.6900702e+02   9.9862469e+02   1.0284818e+03   1.0589223e+03   1.0894733e+03   1.1200816e+03   1.1507358e+03   1.1815004e+03   1.2122774e+03   1.2430323e+03   1.2737018e+03   1.3042655e+03   1.3348886e+03   1.3655636e+03   1.3963224e+03   1.4271663e+03   1.4579499e+03   1.4887027e+03   1.5194476e+03   1.5501788e+03   1.5809044e+03   1.6116143e+03   1.6422877e+03   1.6728165e+03   1.7033100e+03   1.7337810e+03   1.7642054e+03   1.7944439e+03   1.8248219e+03   1.8560591e+03   1.8895648e+03   1.9393624e+03   1.9911563e+03   2.0434236e+03   2.0956927e+03   2.1476276e+03   2.1995362e+03   2.2513672e+03   2.3031551e+03   2.3552822e+03   2.4075381e+03   2.4600134e+03   2.5124195e+03   2.5660207e+03   2.6197169e+03   2.6709981e+03   2.7223026e+03
-1.1961024e+03  -1.1155515e+03  -1.0348752e+03  -9.5393138e+02  -8.7256771e+02  -7.9156434e+02  -7.1037265e+02  -6.2920820e+02  -5.4800330e+02  -4.6680469e+02  -3.8568316e+02  -3.4523717e+02  -3.0479119e+02  -2.6464330e+02  -2.2449541e+02  -2.0476009e+02  -1.8502477e+02  -1.6528945e+02  -1.4555413e+02  -1.2662099e+02  -1.0768786e+02  -8.8754718e+01  -6.9821581e+01  -5.1801347e+01  -3.3781112e+01  -1.5760878e+01   2.2593565e+00   1.9388964e+01   3.6518571e+01   5.3648178e+01   7.0777785e+01   8.7519501e+01   1.0426122e+02   1.2100293e+02   1.3774465e+02   1.5415876e+02   1.7057288e+02   1.8698699e+02   2.0340110e+02   2.1842671e+02   2.3345233e+02   2.4847794e+02   2.6350355e+02   2.7749499e+02   2.9148643e+02   3.0547787e+02   3.1946931e+02   3.3299389e+02   3.4651848e+02   3.6004306e+02   3.7356764e+02   3.8681140e+02   4.0005516e+02   4.1329893e+02   4.2654269e+02   4.3953749e+02   4.5253229e+02   4.6552710e+02   4.7852190e+02   4.9149518e+02   5.0446846e+02   5.1744174e+02   5.3041502e+02   5.4316381e+02   5.5591260e+02   5.6866140e+02   5.8141019e+02   5.9288452e+02   6.0435884e+02   6.1583317e+02   6.2730750e+02   6.3704101e+02   6.4677453e+02   6.5650804e+02   6.6624155e+02   6.8157280e+02   6.9690405e+02   7.1026964e+02   7.2363524e+02   7.4203449e+02   7.5734695e+02   7.7072679e+02   7.8226991e+02   7.9149515e+02   7.9880742e+02   8.0548283e+02   8.1250409e+02   8.2045198e+02   8.3015947e+02   8.4388293e+02   8.6266864e+02   8.8618431e+02   9.1217725e+02   9.4054494e+02   9.6967590e+02   9.9916631e+02   1.0289284e+03   1.0593452e+03   1.0898959e+03   1.1205031e+03   1.1511566e+03   1.1819250e+03   1.2127077e+03   1.2434688e+03   1.2741286e+03   1.3046623e+03   1.3352598e+03   1.3659085e+03   1.3966550e+03   1.4275091e+03   1.4582998e+03   1.4890607e+03   1.5198128e+03   1.5505513e+03   1.5812842e+03   1.6120033e+03   1.6426841e+03   1.6732208e+03   1.7037223e+03   1.7342031e+03   1.7646379e+03   1.7948907e+03   1.8252677e+03   1.8564158e+03   1.8899096e+03   1.9397736e+03   1.9917146e+03   2.0440461e+03   2.0963772e+03   2.1483551e+03   2.2003058e+03   2.2521742e+03   2.3039947e+03   2.3560926e+03   2.4083174e+03   2.4607588e+03   2.5131516e+03   2.5667594e+03   2.6204188e+03   2.6716862e+03   2.7230573e+03
-1.1961024e+03  -1.1150311e+03  -1.0343335e+03  -9.5357144e+02  -8.7234321e+02  -7.9137698e+02  -7.1018238e+02  -6.2900833e+02  -5.4779331e+02  -4.6658454e+02  -3.8545271e+02  -3.4500185e+02  -3.0455099e+02  -2.6440584e+02  -2.2426068e+02  -2.0454315e+02  -1.8482563e+02  -1.6510810e+02  -1.4539057e+02  -1.2649651e+02  -1.0760246e+02  -8.8708400e+01  -6.9814343e+01  -5.1825035e+01  -3.3835727e+01  -1.5846419e+01   2.1428888e+00   1.9290618e+01   3.6438346e+01   5.3586075e+01   7.0733804e+01   8.7543545e+01   1.0435329e+02   1.2116303e+02   1.3797277e+02   1.5442155e+02   1.7087033e+02   1.8731911e+02   2.0376789e+02   2.1879869e+02   2.3382950e+02   2.4886030e+02   2.6389110e+02   2.7790060e+02   2.9191009e+02   3.0591959e+02   3.1992909e+02   3.3346258e+02   3.4699606e+02   3.6052955e+02   3.7406304e+02   3.8730883e+02   4.0055462e+02   4.1380041e+02   4.2704620e+02   4.4004186e+02   4.5303752e+02   4.6603319e+02   4.7902885e+02   4.9199868e+02   5.0496851e+02   5.1793834e+02   5.3090817e+02   5.4366385e+02   5.5641953e+02   5.6917520e+02   5.8193088e+02   5.9335744e+02   6.0478400e+02   6.1621057e+02   6.2763713e+02   6.3733326e+02   6.4702939e+02   6.5672551e+02   6.6642164e+02   6.8201111e+02   6.9760057e+02   7.1130714e+02   7.2501371e+02   7.4343612e+02   7.5860163e+02   7.7167441e+02   7.8280239e+02   7.9173219e+02   7.9895994e+02   8.0580613e+02   8.1317457e+02   8.2154558e+02   8.3165326e+02   8.4522966e+02   8.6369274e+02   8.8709215e+02   9.1312945e+02   9.4141223e+02   9.7043834e+02   9.9979813e+02   1.0294677e+03   1.0598571e+03   1.0904066e+03   1.1210105e+03   1.1516626e+03   1.1824355e+03   1.2132250e+03   1.2439950e+03   1.2746577e+03   1.3051801e+03   1.3357596e+03   1.3663873e+03   1.3971174e+03   1.4279700e+03   1.4587668e+03   1.4895353e+03   1.5202943e+03   1.5510396e+03   1.5817797e+03   1.6125077e+03   1.6431951e+03   1.6737400e+03   1.7042487e+03   1.7347386e+03   1.7651832e+03   1.7954511e+03   1.8258198e+03   1.8568633e+03   1.8904250e+03   1.9403295e+03   1.9924301e+03   2.0448314e+03   2.0972255e+03   2.1492487e+03   2.2012421e+03   2.2531487e+03   2.3050005e+03   2.3570624e+03   2.4092500e+03   2.4616458e+03   2.5139956e+03   2.5675277e+03   2.6211087e+03   2.6723899e+03   2.7238120e+03
-1.1971105e+03  -1.1146013e+03  -1.0337855e+03  -9.5320327e+02  -8.7211704e+02  -7.9119234e+02  -7.0999494e+02  -6.2881088e+02  -5.4758561e+02  -4.6636663e+02  -3.8522424e+02  -3.4476811e+02  -3.0431198e+02  -2.6416922e+02  -2.2402647e+02  -2.0432672e+02  -1.8462697e+02  -1.6492721e+02  -1.4522746e+02  -1.2637171e+02  -1.0751596e+02  -8.8660209e+01  -6.9804459e+01  -5.1844310e+01  -3.3884161e+01  -1.5924012e+01   2.0361365e+00   1.9203366e+01   3.6370596e+01   5.3537826e+01   7.0705056e+01   8.7581172e+01   1.0445729e+02   1.2133340e+02   1.3820952e+02   1.5468863e+02   1.7116773e+02   1.8764684e+02   2.0412594e+02   2.1916106e+02   2.3419618e+02   2.4923129e+02   2.6426641e+02   2.7829446e+02   2.9232250e+02   3.0635055e+02   3.2037860e+02   3.3392197e+02   3.4746533e+02   3.6100869e+02   3.7455206e+02   3.8780197e+02   4.0105189e+02   4.1430180e+02   4.2755171e+02   4.4055149e+02   4.5355127e+02   4.6655104e+02   4.7955082e+02   4.9251953e+02   5.0548823e+02   5.1845694e+02   5.3142564e+02   5.4418531e+02   5.5694497e+02   5.6970464e+02   5.8246431e+02   5.9383865e+02   6.0521298e+02   6.1658731e+02   6.2796165e+02   6.3762367e+02   6.4728569e+02   6.5694770e+02   6.6660972e+02   6.8245332e+02   6.9829693e+02   7.1216635e+02   7.2603577e+02   7.4454699e+02   7.5962486e+02   7.7245619e+02   7.8330384e+02   7.9204613e+02   7.9922834e+02   8.0618129e+02   8.1378238e+02   8.2247514e+02   8.3294652e+02   8.4657860e+02   8.6480082e+02   8.8806498e+02   9.1414331e+02   9.4233830e+02   9.7125697e+02   1.0004854e+03   1.0300658e+03   1.0604236e+03   1.0909684e+03   1.1215661e+03   1.1522161e+03   1.1829937e+03   1.2137909e+03   1.2445717e+03   1.2752444e+03   1.3057662e+03   1.3363326e+03   1.3669420e+03   1.3976532e+03   1.4284972e+03   1.4592983e+03   1.4900739e+03   1.5208394e+03   1.5515910e+03   1.5823378e+03   1.6130741e+03   1.6437670e+03   1.6743196e+03   1.7048346e+03   1.7353326e+03   1.7657847e+03   1.7960665e+03   1.8264198e+03   1.8573592e+03   1.8910419e+03   1.9409523e+03   1.9932138e+03   2.0456887e+03   2.0981468e+03   2.1502174e+03   2.2022541e+03   2.2541992e+03   2.3060807e+03   2.3581020e+03   2.4102481e+03   2.4625899e+03   2.5148766e+03   2.5682749e+03   2.6217532e+03   2.6730721e+03   2.7245667e+03
-1.1981186e+03  -1.1142883e+03  -1.0332412e+03  -9.5282437e+02  -8.7188740e+02  -7.9100927e+02  -7.0981049e+02  -6.2861575e+02  -5.4737992e+02  -4.6615062e+02  -3.8499725e+02  -3.4453531e+02  -3.0407337e+02  -2.6393239e+02  -2.2379140e+02  -2.0410958e+02  -1.8442775e+02  -1.6474592e+02  -1.4506410e+02  -1.2624542e+02  -1.0742674e+02  -8.8608062e+01  -6.9789383e+01  -5.1855386e+01  -3.3921389e+01  -1.5987392e+01   1.9466047e+00   1.9136427e+01   3.6326248e+01   5.3516070e+01   7.0705892e+01   8.7648564e+01   1.0459124e+02   1.2153391e+02   1.3847658e+02   1.5498192e+02   1.7148727e+02   1.8799261e+02   2.0449795e+02   2.1953341e+02   2.3456887e+02   2.4960433e+02   2.6463979e+02   2.7868563e+02   2.9273147e+02   3.0677730e+02   3.2082314e+02   3.3437741e+02   3.4793169e+02   3.6148596e+02   3.7504023e+02   3.8829685e+02   4.0155347e+02   4.1481008e+02   4.2806670e+02   4.4107545e+02   4.5408420e+02   4.6709296e+02   4.8010171e+02   4.9307239e+02   5.0604307e+02   5.1901375e+02   5.3198443e+02   5.4474422e+02   5.5750401e+02   5.7026379e+02   5.8302358e+02   5.9434404e+02   6.0566450e+02   6.1698496e+02   6.2830542e+02   6.3793796e+02   6.4757049e+02   6.5720303e+02   6.6683556e+02   6.8288729e+02   6.9893902e+02   7.1280963e+02   7.2668025e+02   7.4530348e+02   7.6036868e+02   7.7307535e+02   7.8382140e+02   7.9248287e+02   7.9963607e+02   8.0667146e+02   8.1443210e+02   8.2334236e+02   8.3410535e+02   8.4788809e+02   8.6600290e+02   8.8914371e+02   9.1524367e+02   9.4334062e+02   9.7214567e+02   1.0012428e+03   1.0307374e+03   1.0610580e+03   1.0915926e+03   1.1221808e+03   1.1528277e+03   1.1836101e+03   1.2144154e+03   1.2452079e+03   1.2758964e+03   1.3064267e+03   1.3369853e+03   1.3675796e+03   1.3982708e+03   1.4291007e+03   1.4599041e+03   1.4906860e+03   1.5214574e+03   1.5522146e+03   1.5829673e+03   1.6137108e+03   1.6444076e+03   1.6749672e+03   1.7054878e+03   1.7359922e+03   1.7664490e+03   1.7967431e+03   1.8270773e+03   1.8579289e+03   1.8917843e+03   1.9416610e+03   1.9940713e+03   2.0466236e+03   2.0991470e+03   2.1512673e+03   2.2033481e+03   2.2553314e+03   2.3072397e+03   2.3592145e+03   2.4113133e+03   2.4635913e+03   2.5157912e+03   2.5689941e+03   2.6223432e+03   2.6737454e+03   2.7253214e+03
-1.1981186e+03  -1.1140364e+03  -1.0327081e+03  -9.5244015e+02  -8.7165657e+02  -7.9082966e+02  -7.0962976e+02  -6.2842387e+02  -5.4717723e+02  -4.6593753e+02  -3.8477289e+02  -3.4430483e+02  -3.0383677e+02  -2.6369732e+02  -2.2355786e+02  -2.0389370e+02  -1.8422954e+02  -1.6456538e+02  -1.4490122e+02  -1.2611802e+02  -1.0733482e+02  -8.8551621e+01  -6.9768421e+01  -5.1858113e+01  -3.3947805e+01  -1.6037497e+01   1.8728115e+00   1.9086547e+01   3.6300283e+01   5.3514018e+01   7.0727754e+01   8.7734616e+01   1.0474148e+02   1.2174834e+02   1.3875520e+02   1.5528144e+02   1.7180767e+02   1.8833391e+02   2.0486015e+02   2.1989465e+02   2.3492914e+02   2.4996364e+02   2.6499813e+02   2.7906234e+02   2.9312655e+02   3.0719077e+02   3.2125498e+02   3.3482128e+02   3.4838757e+02   3.6195386e+02   3.7552016e+02   3.8878584e+02   4.0205153e+02   4.1531721e+02   4.2858289e+02   4.4160452e+02   4.5462615e+02   4.6764778e+02   4.8066941e+02   4.9364388e+02   5.0661835e+02   5.1959282e+02   5.3256729e+02   5.4532223e+02   5.5807717e+02   5.7083212e+02   5.8358706e+02   5.9485198e+02   6.0611690e+02   6.1738182e+02   6.2864674e+02   6.3825383e+02   6.4786091e+02   6.5746799e+02   6.6707508e+02   6.8326681e+02   6.9945855e+02   7.1323107e+02   7.2700359e+02   7.4575670e+02   7.6088179e+02   7.7359804e+02   7.8438715e+02   7.9305408e+02   8.0020713e+02   8.0730263e+02   8.1514502e+02   8.2418450e+02   8.3516166e+02   8.4913814e+02   8.6726309e+02   8.9031071e+02   9.1640675e+02   9.4439328e+02   9.7307878e+02   1.0020460e+03   1.0314570e+03   1.0617357e+03   1.0922541e+03   1.1228297e+03   1.1534726e+03   1.1842598e+03   1.2150737e+03   1.2458783e+03   1.2765839e+03   1.3071261e+03   1.3376795e+03   1.3682607e+03   1.3989328e+03   1.4297467e+03   1.4605506e+03   1.4913381e+03   1.5221146e+03   1.5528768e+03   1.5836347e+03   1.6143842e+03   1.6450834e+03   1.6756490e+03   1.7061743e+03   1.7366836e+03   1.7671421e+03   1.7974454e+03   1.8277580e+03   1.8585437e+03   1.8925963e+03   1.9424126e+03   1.9949571e+03   2.0475895e+03   2.1001797e+03   2.1523515e+03   2.2044770e+03   2.2564982e+03   2.3084301e+03   2.3603536e+03   2.4124002e+03   2.4646070e+03   2.5167028e+03   2.5696677e+03   2.6228704e+03   2.6744313e+03   2.7260760e+03
-1.1981186e+03  -1.1137956e+03  -1.0321933e+03  -9.5204806e+02  -8.7142291e+02  -7.9065236e+02  -7.0945304e+02  -6.2823523e+02  -5.4697739e+02  -4.6572711e+02  -3.8455081e+02  -3.4407623e+02  -3.0360164e+02  -2.6346326e+02  -2.2332487e+02  -2.0367824e+02  -1.8403161e+02  -1.6438498e+02  -1.4473835e+02  -1.2598834e+02  -1.0723833e+02  -8.8488313e+01  -6.9738301e+01  -5.1847647e+01  -3.3956993e+01  -1.6066339e+01   1.8243153e+00   1.9065248e+01   3.6306181e+01   5.3547113e+01   7.0788046e+01   8.7858432e+01   1.0492882e+02   1.2199920e+02   1.3906959e+02   1.5561111e+02   1.7215263e+02   1.8869415e+02   2.0523567e+02   2.2026412e+02   2.3529257e+02   2.5032101e+02   2.6534946e+02   2.7943151e+02   2.9351356e+02   3.0759561e+02   3.2167766e+02   3.3525716e+02   3.4883667e+02   3.6241618e+02   3.7599568e+02   3.8927334e+02   4.0255100e+02   4.1582867e+02   4.2910633e+02   4.4214685e+02   4.5518736e+02   4.6822788e+02   4.8126840e+02   4.9424941e+02   5.0723041e+02   5.2021141e+02   5.3319242e+02   5.4593613e+02   5.5867985e+02   5.7142357e+02   5.8416728e+02   5.9537769e+02   6.0658810e+02   6.1779850e+02   6.2900891e+02   6.3859075e+02   6.4817260e+02   6.5775444e+02   6.6733628e+02   6.8359802e+02   6.9985975e+02   7.1349103e+02   7.2712231e+02   7.4601405e+02   7.6125518e+02   7.7407746e+02   7.8499279e+02   7.9372151e+02   8.0091299e+02   8.0804856e+02   8.1592463e+02   8.2503016e+02   8.3619802e+02   8.5039755e+02   8.6863717e+02   8.9161576e+02   9.1768135e+02   9.4553494e+02   9.7409385e+02   1.0029351e+03   1.0322726e+03   1.0624951e+03   1.0929908e+03   1.1235497e+03   1.1541887e+03   1.1849782e+03   1.2157995e+03   1.2466141e+03   1.2773350e+03   1.3078914e+03   1.3384399e+03   1.3690095e+03   1.3996640e+03   1.4304601e+03   1.4612635e+03   1.4920554e+03   1.5228360e+03   1.5536024e+03   1.5843644e+03   1.6151180e+03   1.6458174e+03   1.6763889e+03   1.7069175e+03   1.7374293e+03   1.7678857e+03   1.7981959e+03   1.8284952e+03   1.8592522e+03   1.8935904e+03   1.9432444e+03   1.9959028e+03   2.0486172e+03   2.1012736e+03   2.1535005e+03   2.2056703e+03   2.2577271e+03   2.3096742e+03   2.3615420e+03   2.4135295e+03   2.4656557e+03   2.5176396e+03   2.5703681e+03   2.6234038e+03   2.6751596e+03   2.7268307e+03
-1.1976849e+03  -1.1135377e+03  -1.0316973e+03  -9.5165360e+02  -8.7118889e+02  -7.9047919e+02  -7.0928085e+02  -6.2805063e+02  -5.4678125e+02  -4.6552024e+02  -3.8433204e+02  -3.4385075e+02  -3.0336947e+02  -2.6323204e+02  -2.2309461e+02  -2.0346491e+02  -1.8383522e+02  -1.6420552e+02  -1.4457582e+02  -1.2585647e+02  -1.0713711e+02  -8.8417761e+01  -6.9698408e+01  -5.1824190e+01  -3.3949972e+01  -1.6075754e+01   1.7984641e+00   1.9067911e+01   3.6337359e+01   5.3606806e+01   7.0876253e+01   8.8006922e+01   1.0513759e+02   1.2226826e+02   1.3939893e+02   1.5594896e+02   1.7249899e+02   1.8904902e+02   2.0559905e+02   2.2061959e+02   2.3564013e+02   2.5066066e+02   2.6568120e+02   2.7978201e+02   2.9388281e+02   3.0798361e+02   3.2208442e+02   3.3567844e+02   3.4927246e+02   3.6286648e+02   3.7646050e+02   3.8975276e+02   4.0304502e+02   4.1633728e+02   4.2962954e+02   4.4269344e+02   4.5575734e+02   4.6882123e+02   4.8188513e+02   4.9487363e+02   5.0786212e+02   5.2085062e+02   5.3383912e+02   5.4656484e+02   5.5929056e+02   5.7201628e+02   5.8474200e+02   5.9589767e+02   6.0705335e+02   6.1820902e+02   6.2936470e+02   6.3891948e+02   6.4847427e+02   6.5802905e+02   6.6758383e+02   6.8385348e+02   7.0012312e+02   7.1362241e+02   7.2712170e+02   7.4617570e+02   7.6156391e+02   7.7453717e+02   7.8561494e+02   7.9444823e+02   8.0170217e+02   8.0887550e+02   8.1676047e+02   8.2590724e+02   8.3723965e+02   8.5169099e+02   8.7010916e+02   8.9303480e+02   9.1903829e+02   9.4673675e+02   9.7516128e+02   1.0038817e+03   1.0331539e+03   1.0633088e+03   1.0937735e+03   1.1243122e+03   1.1549470e+03   1.1857364e+03   1.2165634e+03   1.2473854e+03   1.2781165e+03   1.3086851e+03   1.3392289e+03   1.3697887e+03   1.4004299e+03   1.4312101e+03   1.4620121e+03   1.4928071e+03   1.5235909e+03   1.5543606e+03   1.5851256e+03   1.6158816e+03   1.6465793e+03   1.6771558e+03   1.7076868e+03   1.7381988e+03   1.7686492e+03   1.7989638e+03   1.8292558e+03   1.8600221e+03   1.8947081e+03   1.9441204e+03   1.9968647e+03   2.0496623e+03   2.1023846e+03   2.1546696e+03   2.2068834e+03   2.2589741e+03   2.3109287e+03   2.3627365e+03   2.4146594e+03   2.4666982e+03   2.5185656e+03   2.5710581e+03   2.6239092e+03   2.6758401e+03   2.7274138e+03
-1.1972513e+03  -1.1132060e+03  -1.0312014e+03  -9.5125439e+02  -8.7095292e+02  -7.9030911e+02  -7.0911360e+02  -6.2787020e+02  -5.4658878e+02  -4.6531678e+02  -3.8411636e+02  -3.4362820e+02  -3.0314004e+02  -2.6300333e+02  -2.2286662e+02  -2.0325332e+02  -1.8364002e+02  -1.6402672e+02  -1.4441342e+02  -1.2572124e+02  -1.0702905e+02  -8.8336867e+01  -6.9644682e+01  -5.1781751e+01  -3.3918820e+01  -1.6055889e+01   1.8070418e+00   1.9108625e+01   3.6410207e+01   5.3711790e+01   7.1013373e+01   8.8203122e+01   1.0539287e+02   1.2258262e+02   1.3977237e+02   1.5632480e+02   1.7287724e+02   1.8942968e+02   2.0598211e+02   2.2098893e+02   2.3599576e+02   2.5100258e+02   2.6600940e+02   2.8012703e+02   2.9424466e+02   3.0836229e+02   3.2247992e+02   3.3608987e+02   3.4969982e+02   3.6330978e+02   3.7691973e+02   3.9022969e+02   4.0353964e+02   4.1684960e+02   4.3015955e+02   4.4325241e+02   4.5634527e+02   4.6943813e+02   4.8253099e+02   4.9552922e+02   5.0852744e+02   5.2152567e+02   5.3452389e+02   5.4722435e+02   5.5992480e+02   5.7262525e+02   5.8532571e+02   5.9642810e+02   6.0753050e+02   6.1863289e+02   6.2973529e+02   6.3925852e+02   6.4878175e+02   6.5830498e+02   6.6782821e+02   6.8406302e+02   7.0029783e+02   7.1370084e+02   7.2710385e+02   7.4637681e+02   7.6190809e+02   7.7502371e+02   7.8626864e+02   7.9521740e+02   8.0257531e+02   8.0981752e+02   8.1770341e+02   8.2690642e+02   8.3839346e+02   8.5307098e+02   8.7169931e+02   8.9457935e+02   9.2047616e+02   9.4801168e+02   9.7629274e+02   1.0049026e+03   1.0341145e+03   1.0641950e+03   1.0946168e+03   1.1251324e+03   1.1557617e+03   1.1865486e+03   1.2173788e+03   1.2482053e+03   1.2789445e+03   1.3095264e+03   1.3400687e+03   1.3706224e+03   1.4012531e+03   1.4320174e+03   1.4628162e+03   1.4936128e+03   1.5243985e+03   1.5551703e+03   1.5859373e+03   1.6166937e+03   1.6473878e+03   1.6779681e+03   1.7085007e+03   1.7390101e+03   1.7694510e+03   1.7997667e+03   1.8300506e+03   1.8608870e+03   1.8959641e+03   1.9450840e+03   1.9978663e+03   2.0507497e+03   2.1035387e+03   2.1558843e+03   2.2081427e+03   2.2602654e+03   2.3122218e+03   2.3639676e+03   2.4158215e+03   2.4677701e+03   2.5195319e+03   2.5718159e+03   2.6244494e+03   2.6764094e+03   2.7279970e+03
-1.1968176e+03  -1.1128148e+03  -1.0307030e+03  -9.5085524e+02  -8.7071778e+02  -7.9014384e+02  -7.0895159e+02  -6.2769454e+02  -5.4640068e+02  -4.6511748e+02  -3.8390467e+02  -3.4340966e+02  -3.0291464e+02  -2.6277868e+02  -2.2264271e+02  -2.0304478e+02  -1.8344685e+02  -1.6384893e+02  -1.4425100e+02  -1.2558243e+02  -1.0691386e+02  -8.8245294e+01  -6.9576726e+01  -5.1721056e+01  -3.3865386e+01  -1.6009716e+01   1.8459545e+00   1.9181092e+01   3.6516230e+01   5.3851367e+01   7.1186505e+01   8.8431264e+01   1.0567602e+02   1.2292078e+02   1.4016554e+02   1.5671297e+02   1.7326041e+02   1.8980784e+02   2.0635528e+02   2.2134659e+02   2.3633791e+02   2.5132922e+02   2.6632053e+02   2.8045507e+02   2.9458961e+02   3.0872414e+02   3.2285868e+02   3.3648599e+02   3.5011329e+02   3.6374060e+02   3.7736791e+02   3.9069822e+02   4.0402854e+02   4.1735886e+02   4.3068917e+02   4.4381438e+02   4.5693959e+02   4.7006479e+02   4.8319000e+02   4.9619826e+02   5.0920652e+02   5.2221478e+02   5.3522304e+02   5.4789132e+02   5.6055960e+02   5.7322788e+02   5.8589616e+02   5.9694480e+02   6.0799343e+02   6.1904207e+02   6.3009071e+02   6.3957834e+02   6.4906597e+02   6.5855361e+02   6.6804124e+02   6.8421838e+02   7.0039552e+02   7.1377372e+02   7.2715191e+02   7.4668828e+02   7.6234369e+02   7.7557240e+02   7.8692580e+02   7.9598194e+02   8.0348896e+02   8.1083987e+02   8.1876013e+02   8.2809652e+02   8.3972490e+02   8.5456406e+02   8.7337331e+02   8.9620809e+02   9.2196525e+02   9.4932990e+02   9.7746411e+02   1.0059723e+03   1.0351267e+03   1.0651276e+03   1.0954972e+03   1.1259871e+03   1.1566094e+03   1.1873915e+03   1.2182225e+03   1.2490507e+03   1.2797948e+03   1.3103886e+03   1.3409316e+03   1.3714820e+03   1.4021053e+03   1.4328551e+03   1.4636491e+03   1.4944458e+03   1.5252321e+03   1.5560051e+03   1.5867729e+03   1.6175276e+03   1.6482169e+03   1.6787994e+03   1.7093326e+03   1.7398369e+03   1.7702656e+03   1.8005776e+03   1.8308563e+03   1.8618141e+03   1.8972935e+03   1.9460886e+03   1.9988729e+03   2.0518429e+03   2.1046994e+03   2.1571075e+03   2.2094109e+03   2.2615640e+03   2.3135164e+03   2.3651983e+03   2.4169798e+03   2.4688371e+03   2.5205020e+03   2.5725956e+03   2.6249875e+03   2.6768871e+03   2.7285801e+03
-1.1963840e+03  -1.1123694e+03  -1.0302030e+03  -9.5045518e+02  -8.7048315e+02  -7.8998261e+02  -7.0879534e+02  -6.2752393e+02  -5.4621704e+02  -4.6492229e+02  -3.8369691e+02  -3.4319515e+02  -3.0269340e+02  -2.6255819e+02  -2.2242298e+02  -2.0283938e+02  -1.8325579e+02  -1.6367219e+02  -1.4408859e+02  -1.2543886e+02  -1.0678913e+02  -8.8139398e+01  -6.9489668e+01  -5.1634967e+01  -3.3780267e+01  -1.5925566e+01   1.9291348e+00   1.9301769e+01   3.6674403e+01   5.4047037e+01   7.1419671e+01   8.8717518e+01   1.0601537e+02   1.2331321e+02   1.4061106e+02   1.5714770e+02   1.7368434e+02   1.9022097e+02   2.0675761e+02   2.2172824e+02   2.3669887e+02   2.5166949e+02   2.6664012e+02   2.8078749e+02   2.9493486e+02   3.0908223e+02   3.2322960e+02   3.3687518e+02   3.5052077e+02   3.6416635e+02   3.7781194e+02   3.9116542e+02   4.0451889e+02   4.1787237e+02   4.3122585e+02   4.4438623e+02   4.5754661e+02   4.7070699e+02   4.8386737e+02   4.9688758e+02   5.0990779e+02   5.2292800e+02   5.3594821e+02   5.4857919e+02   5.6121017e+02   5.7384115e+02   5.8647213e+02   5.9746801e+02   6.0846390e+02   6.1945979e+02   6.3045567e+02   6.3990212e+02   6.4934856e+02   6.5879500e+02   6.6824145e+02   6.8436898e+02   7.0049652e+02   7.1395998e+02   7.2742345e+02   7.4730018e+02   7.6304381e+02   7.7633241e+02   7.8762618e+02   7.9667990e+02   8.0437910e+02   8.1186469e+02   8.1995135e+02   8.2948800e+02   8.4124352e+02   8.5617236e+02   8.7508002e+02   8.9788296e+02   9.2349693e+02   9.5069083e+02   9.7867933e+02   1.0070933e+03   1.0361907e+03   1.0661106e+03   1.0964208e+03   1.1268818e+03   1.1574946e+03   1.1882701e+03   1.2190994e+03   1.2499274e+03   1.2806755e+03   1.3112815e+03   1.3418282e+03   1.3723779e+03   1.4029950e+03   1.4337303e+03   1.4645175e+03   1.4953125e+03   1.5260981e+03   1.5568712e+03   1.5876386e+03   1.6183899e+03   1.6490731e+03   1.6796561e+03   1.7101887e+03   1.7406856e+03   1.7711001e+03   1.8014019e+03   1.8316768e+03   1.8627958e+03   1.8986645e+03   1.9471409e+03   1.9998941e+03   2.0529490e+03   2.1058751e+03   2.1583468e+03   2.2106959e+03   2.2628785e+03   2.3148231e+03   2.3664409e+03   2.4181484e+03   2.4699160e+03   2.5214988e+03   2.5734286e+03   2.6255565e+03   2.6773136e+03   2.7291632e+03
-1.1959503e+03  -1.1118830e+03  -1.0297052e+03  -9.5005917e+02  -8.7025186e+02  -7.8982704e+02  -7.0864492e+02  -6.2735878e+02  -5.4603839e+02  -4.6473182e+02  -3.8349382e+02  -3.4298560e+02  -3.0247738e+02  -2.6234308e+02  -2.2220879e+02  -2.0263798e+02  -1.8306716e+02  -1.6349635e+02  -1.4392554e+02  -1.2529003e+02  -1.0665452e+02  -8.8019008e+01  -6.9383497e+01  -5.1524930e+01  -3.3666364e+01  -1.5807797e+01   2.0507699e+00   1.9462371e+01   3.6873973e+01   5.4285574e+01   7.1697176e+01   8.9043039e+01   1.0638890e+02   1.2373477e+02   1.4108063e+02   1.5759953e+02   1.7411843e+02   1.9063732e+02   2.0715622e+02   2.2210517e+02   2.3705412e+02   2.5200307e+02   2.6695202e+02   2.8111091e+02   2.9526981e+02   3.0942871e+02   3.2358760e+02   3.3725237e+02   3.5091715e+02   3.6458192e+02   3.7824669e+02   3.9162540e+02   4.0500412e+02   4.1838283e+02   4.3176154e+02   4.4495743e+02   4.5815332e+02   4.7134920e+02   4.8454509e+02   4.9757755e+02   5.1061001e+02   5.2364246e+02   5.3667492e+02   5.4926442e+02   5.6185392e+02   5.7444342e+02   5.8703292e+02   5.9797569e+02   6.0891846e+02   6.1986123e+02   6.3080400e+02   6.4020765e+02   6.4961130e+02   6.5901496e+02   6.6841861e+02   6.8453550e+02   7.0065239e+02   7.1434258e+02   7.2803278e+02   7.4831462e+02   7.6413092e+02   7.7735426e+02   7.8839195e+02   7.9735588e+02   8.0520589e+02   8.1288203e+02   8.2121565e+02   8.3095636e+02   8.4285553e+02   8.5784684e+02   8.7680140e+02   8.9957338e+02   9.2504886e+02   9.5207534e+02   9.7992171e+02   1.0082463e+03   1.0372858e+03   1.0671249e+03   1.0973717e+03   1.1278007e+03   1.1584015e+03   1.1891687e+03   1.2199944e+03   1.2508209e+03   1.2815712e+03   1.3121880e+03   1.3427399e+03   1.3732900e+03   1.4039019e+03   1.4346236e+03   1.4654024e+03   1.4961943e+03   1.5269781e+03   1.5577500e+03   1.5885160e+03   1.6192624e+03   1.6499386e+03   1.6805204e+03   1.7110509e+03   1.7415386e+03   1.7719373e+03   1.8022236e+03   1.8324991e+03   1.8637992e+03   1.9000272e+03   1.9482049e+03   2.0009094e+03   2.0540466e+03   2.1070436e+03   2.1595795e+03   2.2119750e+03   2.2641860e+03   2.3161194e+03   2.3676727e+03   2.4193053e+03   2.4709865e+03   2.5224977e+03   2.5742797e+03   2.6261316e+03   2.6777046e+03   2.7297463e+03
-1.1955167e+03  -1.1114489e+03  -1.0292310e+03  -9.4967286e+02  -8.7002465e+02  -7.8967683e+02  -7.0850091e+02  -6.2719947e+02  -5.4586495e+02  -4.6454615e+02  -3.8329552e+02  -3.4278130e+02  -3.0226707e+02  -2.6213394e+02  -2.2200081e+02  -2.0244111e+02  -1.8288141e+02  -1.6332171e+02  -1.4376201e+02  -1.2513465e+02  -1.0650728e+02  -8.7879916e+01  -6.9252551e+01  -5.1382768e+01  -3.3512985e+01  -1.5643202e+01   2.2265809e+00   1.9681240e+01   3.7135899e+01   5.4590559e+01   7.2045218e+01   8.9436284e+01   1.0682735e+02   1.2421841e+02   1.4160948e+02   1.5810604e+02   1.7460261e+02   1.9109918e+02   2.0759574e+02   2.2251920e+02   2.3744266e+02   2.5236611e+02   2.6728957e+02   2.8145377e+02   2.9561798e+02   3.0978218e+02   3.2394638e+02   3.3762999e+02   3.5131360e+02   3.6499720e+02   3.7868081e+02   3.9208647e+02   4.0549212e+02   4.1889778e+02   4.3230344e+02   4.4553315e+02   4.5876286e+02   4.7199257e+02   4.8522228e+02   4.9826841e+02   5.1131453e+02   5.2436066e+02   5.3740679e+02   5.4995598e+02   5.6250517e+02   5.7505435e+02   5.8760354e+02   5.9849603e+02   6.0938852e+02   6.2028101e+02   6.3117350e+02   6.4053156e+02   6.4988963e+02   6.5924769e+02   6.6860575e+02   6.8477696e+02   7.0094817e+02   7.1490003e+02   7.2885188e+02   7.4951217e+02   7.6544600e+02   7.7850415e+02   7.8921121e+02   7.9804853e+02   8.0597615e+02   8.1385458e+02   8.2241684e+02   8.3237879e+02   8.4446978e+02   8.5957862e+02   8.7856553e+02   9.0131124e+02   9.2666972e+02   9.5353850e+02   9.8124672e+02   1.0094849e+03   1.0384662e+03   1.0682254e+03   1.0984059e+03   1.1287989e+03   1.1593840e+03   1.1901401e+03   1.2209594e+03   1.2517804e+03   1.2825217e+03   1.3131303e+03   1.3436755e+03   1.3742167e+03   1.4048245e+03   1.4355418e+03   1.4663121e+03   1.4970998e+03   1.5278808e+03   1.5586505e+03   1.5894138e+03   1.6201541e+03   1.6508225e+03   1.6814011e+03   1.7119278e+03   1.7424050e+03   1.7727869e+03   1.8030538e+03   1.8333345e+03   1.8648196e+03   1.9013700e+03   1.9492897e+03   2.0019362e+03   2.0551500e+03   2.1082189e+03   2.1608196e+03   2.2132620e+03   2.2655009e+03   2.3174219e+03   2.3689126e+03   2.4204707e+03   2.4720705e+03   2.5235270e+03   2.5751919e+03   2.6267889e+03   2.6781542e+03   2.7303295e+03
