8.4430066e+03   8.4205196e+03   8.3787663e+03   8.3353415e+03   8.2947654e+03   8.2583621e+03   8.2283952e+03   8.2071305e+03   8.1979732e+03   8.2021394e+03   8.2177767e+03   8.2408140e+03   8.2677907e+03   8.2993841e+03   8.3376003e+03   8.3900578e+03   8.4706202e+03   8.5755051e+03   8.6783983e+03   8.7532797e+03   8.8061520e+03   8.8378101e+03   8.8668707e+03   8.8964426e+03   8.9160482e+03   8.9180861e+03   8.9164820e+03   8.9184845e+03   8.9249010e+03   8.9268434e+03   8.9242898e+03   8.9181615e+03   8.9105368e+03   8.9015291e+03   8.8950177e+03   8.8952130e+03   8.8983469e+03   8.9006108e+03   8.9005393e+03   8.8999251e+03   8.9002938e+03   8.9052451e+03   8.9125575e+03   8.9145943e+03   8.9086143e+03   8.8942755e+03   8.8727589e+03   8.8509159e+03   8.8316560e+03   8.8132121e+03   8.7980738e+03   8.7850392e+03   8.7716800e+03   8.7597411e+03   8.7501675e+03   8.7426510e+03   8.7350812e+03   8.7266459e+03   8.7140686e+03   8.6949627e+03   8.6568298e+03   8.6063431e+03   8.5686540e+03   8.5176783e+03   8.5121731e+03   8.5051081e+03   8.4986605e+03   8.4949077e+03   8.4924521e+03   8.4912032e+03   8.4893439e+03   8.4876464e+03   8.4837650e+03   8.4379626e+03   8.4379555e+03   8.4379482e+03   8.4476802e+03   8.4529616e+03   8.4549881e+03   8.4545154e+03   8.4521746e+03   8.4492340e+03   8.4462782e+03   8.4437795e+03   8.4419202e+03   8.4407926e+03   8.4404286e+03   8.4407683e+03   8.4416981e+03   8.4428835e+03   8.4437682e+03   8.4440691e+03   8.4433877e+03   8.4426930e+03   8.4429378e+03   8.4450979e+03   8.4489540e+03   8.4582202e+03   8.4723835e+03   8.4903226e+03   8.5100503e+03   8.5296158e+03   8.5471779e+03   8.5625577e+03   8.5758729e+03   8.5878040e+03   8.5986796e+03   8.6093498e+03   8.6200742e+03   8.6319536e+03   8.6456619e+03   8.6612974e+03   8.6778943e+03   8.6945144e+03   8.7104030e+03   8.7256108e+03   8.7401053e+03   8.7543952e+03   8.7686144e+03   8.7831886e+03   8.7979867e+03   8.8196175e+03   8.8456385e+03   8.8732677e+03   8.8997166e+03   8.9180594e+03   8.9054137e+03   8.9477439e+03   8.9893547e+03   9.0320294e+03   9.0720950e+03   9.1117230e+03   9.1458923e+03   9.1802612e+03   9.2075612e+03   9.2377723e+03   9.2973840e+03   9.3550827e+03   9.3721188e+03   9.3837867e+03   9.3916746e+03   9.4006133e+03   9.4148298e+03   9.4305799e+03   9.4303547e+03   9.4286943e+03   9.4325982e+03   9.4364997e+03   9.4301886e+03   9.4259672e+03   9.4434003e+03   9.4601840e+03   9.4615054e+03   9.4659271e+03   9.4869235e+03   9.5068094e+03   9.5270075e+03   9.5482485e+03   9.5733218e+03   9.6024006e+03
8.9671706e+03   8.8976913e+03   8.8490382e+03   8.8083906e+03   8.7722471e+03   8.7410486e+03   8.7159454e+03   8.6973916e+03   8.6854870e+03   8.6811294e+03   8.6873005e+03   8.7027953e+03   8.7225817e+03   8.7436943e+03   8.7656810e+03   8.7954459e+03   8.8464853e+03   8.9093324e+03   8.9646574e+03   9.0118525e+03   9.0484292e+03   9.0716904e+03   9.0944289e+03   9.1199609e+03   9.1369125e+03   9.1346748e+03   9.1268962e+03   9.1225290e+03   9.1231727e+03   9.1221810e+03   9.1181676e+03   9.1112844e+03   9.1031772e+03   9.0941570e+03   9.0874849e+03   9.0870830e+03   9.0900281e+03   9.0923031e+03   9.0929759e+03   9.0936749e+03   9.0961227e+03   9.1042513e+03   9.1138742e+03   9.1160045e+03   9.1083966e+03   9.0914793e+03   9.0661061e+03   9.0412064e+03   9.0199003e+03   9.0015464e+03   8.9893026e+03   8.9770925e+03   8.9602065e+03   8.9413214e+03   8.9263191e+03   8.9153412e+03   8.9050863e+03   8.8937349e+03   8.8741405e+03   8.8416502e+03   8.7912342e+03   8.7401866e+03   8.7048590e+03   8.6582062e+03   8.6545386e+03   8.6509775e+03   8.6467453e+03   8.6424773e+03   8.6392418e+03   8.6367628e+03   8.6344325e+03   8.6321828e+03   8.6249006e+03   8.6116662e+03   8.6097067e+03   8.6077472e+03   8.6090266e+03   8.6088507e+03   8.6073394e+03   8.6047229e+03   8.6012915e+03   8.5979484e+03   8.5950348e+03   8.5926570e+03   8.5907793e+03   8.5895976e+03   8.5890575e+03   8.5890377e+03   8.5894081e+03   8.5893922e+03   8.5888193e+03   8.5894219e+03   8.5912631e+03   8.5948796e+03   8.5999222e+03   8.6072499e+03   8.6162436e+03   8.6258830e+03   8.6363515e+03   8.6481462e+03   8.6613496e+03   8.6749874e+03   8.6884723e+03   8.7023380e+03   8.7162264e+03   8.7297087e+03   8.7425790e+03   8.7555457e+03   8.7688627e+03   8.7830708e+03   8.7984433e+03   8.8150021e+03   8.8322423e+03   8.8500724e+03   8.8678555e+03   8.8852422e+03   8.9020207e+03   8.9185903e+03   8.9350531e+03   8.9515581e+03   8.9681930e+03   8.9924537e+03   9.0221556e+03   9.0536102e+03   9.0822725e+03   9.0940640e+03   9.0676597e+03   9.1118009e+03   9.1551914e+03   9.1999911e+03   9.2424372e+03   9.2837124e+03   9.3192950e+03   9.3550441e+03   9.3841280e+03   9.4170011e+03   9.4788715e+03   9.5402610e+03   9.5783433e+03   9.6161072e+03   9.6349670e+03   9.6442977e+03   9.6508537e+03   9.6613205e+03   9.6654707e+03   9.6675271e+03   9.6715419e+03   9.6737695e+03   9.6733434e+03   9.6800028e+03   9.6963366e+03   9.7054245e+03   9.7092213e+03   9.7215834e+03   9.7415435e+03   9.7592237e+03   9.7757737e+03   9.7934398e+03   9.8095819e+03   9.8294965e+03
9.3779194e+03   9.2925229e+03   9.2455843e+03   9.2089065e+03   9.1759660e+03   9.1483433e+03   9.1265316e+03   9.1092957e+03   9.0920879e+03   9.0753973e+03   9.0691391e+03   9.0774573e+03   9.0935474e+03   9.1118993e+03   9.1283835e+03   9.1464477e+03   9.1834815e+03   9.2306818e+03   9.2577498e+03   9.2797905e+03   9.2998764e+03   9.3130474e+03   9.3255787e+03   9.3409121e+03   9.3528020e+03   9.3497730e+03   9.3402823e+03   9.3322804e+03   9.3279476e+03   9.3236739e+03   9.3177709e+03   9.3097688e+03   9.3008835e+03   9.2914241e+03   9.2844910e+03   9.2843294e+03   9.2876875e+03   9.2900296e+03   9.2915201e+03   9.2934532e+03   9.2967633e+03   9.3068839e+03   9.3210476e+03   9.3267534e+03   9.3182883e+03   9.2954735e+03   9.2635700e+03   9.2360392e+03   9.2142846e+03   9.1946440e+03   9.1810419e+03   9.1681788e+03   9.1494192e+03   9.1273794e+03   9.1087199e+03   9.0946405e+03   9.0827605e+03   9.0684502e+03   9.0437109e+03   9.0020608e+03   8.9527415e+03   8.9102658e+03   8.8740853e+03   8.8238970e+03   8.8186099e+03   8.8150118e+03   8.8114136e+03   8.8076652e+03   8.8039169e+03   8.8011166e+03   8.7983165e+03   8.7957550e+03   8.7931935e+03   8.7853699e+03   8.7814581e+03   8.7775463e+03   8.7800866e+03   8.7806510e+03   8.7799220e+03   8.7784019e+03   8.7764353e+03   8.7743118e+03   8.7723133e+03   8.7705390e+03   8.7689986e+03   8.7678394e+03   8.7670405e+03   8.7665441e+03   8.7662815e+03   8.7663941e+03   8.7668619e+03   8.7695361e+03   8.7741765e+03   8.7809014e+03   8.7891722e+03   8.7993127e+03   8.8107692e+03   8.8233659e+03   8.8365890e+03   8.8492323e+03   8.8611640e+03   8.8719913e+03   8.8818867e+03   8.8924306e+03   8.9038392e+03   8.9162156e+03   8.9291903e+03   8.9433376e+03   8.9584930e+03   8.9748649e+03   8.9921001e+03   9.0096721e+03   9.0273951e+03   9.0455583e+03   9.0640196e+03   9.0826940e+03   9.1013326e+03   9.1200774e+03   9.1389192e+03   9.1579222e+03   9.1770899e+03   9.2032336e+03   9.2349013e+03   9.2697574e+03   9.3018588e+03   9.3150302e+03   9.2965652e+03   9.3446552e+03   9.3913186e+03   9.4399813e+03   9.4865571e+03   9.5316090e+03   9.5708767e+03   9.6097402e+03   9.6424494e+03   9.6811205e+03   9.7350543e+03   9.7896078e+03   9.8306225e+03   9.8703776e+03   9.8918939e+03   9.9019753e+03   9.9078985e+03   9.9170128e+03   9.9232956e+03   9.9282077e+03   9.9334187e+03   9.9371141e+03   9.9409088e+03   9.9506549e+03   9.9649783e+03   9.9732949e+03   9.9805114e+03   9.9946618e+03   1.0012301e+04   1.0028012e+04   1.0042212e+04   1.0056376e+04   1.0067888e+04   1.0085446e+04
9.7047739e+03   9.6248533e+03   9.5785189e+03   9.5425805e+03   9.5100359e+03   9.4834245e+03   9.4629910e+03   9.4470041e+03   9.4267018e+03   9.4012203e+03   9.3856200e+03   9.3881306e+03   9.4007956e+03   9.4167698e+03   9.4314573e+03   9.4449061e+03   9.4722879e+03   9.5143846e+03   9.5304813e+03   9.5382256e+03   9.5459882e+03   9.5506284e+03   9.5541309e+03   9.5597394e+03   9.5656112e+03   9.5624184e+03   9.5537142e+03   9.5445942e+03   9.5372602e+03   9.5305001e+03   9.5231230e+03   9.5145307e+03   9.5051169e+03   9.4952047e+03   9.4894079e+03   9.4909782e+03   9.4949193e+03   9.4976442e+03   9.4999046e+03   9.5026474e+03   9.5055820e+03   9.5168701e+03   9.5341423e+03   9.5419099e+03   9.5308164e+03   9.5007524e+03   9.4625838e+03   9.4336494e+03   9.4133800e+03   9.3930890e+03   9.3762674e+03   9.3613823e+03   9.3411284e+03   9.3174345e+03   9.2992343e+03   9.2855319e+03   9.2748105e+03   9.2593084e+03   9.2328309e+03   9.1940427e+03   9.1544762e+03   9.1258265e+03   9.1028249e+03   9.0769585e+03   9.0711257e+03   9.0672581e+03   9.0633905e+03   9.0598185e+03   9.0562466e+03   9.0537043e+03   9.0511619e+03   9.0490902e+03   9.0470185e+03   9.0411339e+03   9.0381916e+03   9.0352494e+03   9.0334929e+03   9.0318693e+03   9.0304271e+03   9.0291513e+03   9.0280023e+03   9.0270748e+03   9.0263910e+03   9.0259127e+03   9.0255876e+03   9.0254702e+03   9.0255459e+03   9.0257835e+03   9.0261476e+03   9.0266309e+03   9.0272369e+03   9.0293016e+03   9.0326626e+03   9.0375383e+03   9.0436483e+03   9.0515481e+03   9.0608193e+03   9.0714200e+03   9.0829993e+03   9.0944463e+03   9.1053301e+03   9.1151731e+03   9.1239999e+03   9.1333469e+03   9.1433630e+03   9.1544694e+03   9.1664846e+03   9.1799212e+03   9.1945314e+03   9.2104338e+03   9.2272030e+03   9.2444472e+03   9.2618515e+03   9.2797442e+03   9.2980240e+03   9.3169421e+03   9.3363239e+03   9.3563696e+03   9.3768792e+03   9.3978912e+03   9.4192468e+03   9.4471956e+03   9.4797998e+03   9.5162067e+03   9.5525629e+03   9.5789654e+03   9.5853821e+03   9.6361031e+03   9.6860866e+03   9.7371611e+03   9.7880501e+03   9.8355965e+03   9.8787709e+03   9.9195790e+03   9.9558407e+03   9.9950644e+03   1.0035669e+04   1.0074643e+04   1.0107409e+04   1.0136554e+04   1.0155098e+04   1.0167215e+04   1.0175548e+04   1.0185032e+04   1.0192600e+04   1.0199545e+04   1.0206174e+04   1.0212192e+04   1.0219101e+04   1.0229250e+04   1.0241771e+04   1.0251556e+04   1.0261828e+04   1.0275771e+04   1.0291249e+04   1.0305481e+04   1.0318004e+04   1.0329607e+04   1.0338566e+04   1.0354483e+04
9.9813837e+03   9.9077712e+03   9.8601626e+03   9.8231592e+03   9.7897451e+03   9.7632261e+03   9.7431900e+03   9.7283387e+03   9.7073647e+03   9.6790529e+03   9.6598335e+03   9.6590036e+03   9.6687453e+03   9.6822787e+03   9.6953250e+03   9.7053578e+03   9.7228168e+03   9.7586483e+03   9.7706834e+03   9.7726490e+03   9.7741043e+03   9.7746584e+03   9.7747098e+03   9.7750024e+03   9.7755319e+03   9.7716790e+03   9.7643877e+03   9.7559328e+03   9.7476746e+03   9.7399046e+03   9.7321984e+03   9.7238375e+03   9.7145653e+03   9.7055410e+03   9.7026017e+03   9.7064743e+03   9.7111401e+03   9.7144353e+03   9.7170837e+03   9.7201684e+03   9.7237173e+03   9.7356189e+03   9.7507963e+03   9.7542636e+03   9.7386126e+03   9.7045891e+03   9.6656769e+03   9.6385774e+03   9.6191941e+03   9.5990664e+03   9.5806940e+03   9.5614952e+03   9.5387491e+03   9.5208131e+03   9.5074343e+03   9.4975395e+03   9.4899458e+03   9.4755753e+03   9.4524272e+03   9.4235941e+03   9.3963199e+03   9.3770660e+03   9.3576076e+03   9.3300201e+03   9.3236415e+03   9.3195044e+03   9.3153673e+03   9.3119719e+03   9.3085763e+03   9.3062918e+03   9.3040073e+03   9.3024253e+03   9.3008433e+03   9.2968979e+03   9.2949251e+03   9.2929524e+03   9.2927576e+03   9.2923253e+03   9.2919070e+03   9.2915986e+03   9.2914165e+03   9.2913831e+03   9.2915395e+03   9.2918663e+03   9.2923259e+03   9.2929330e+03   9.2936829e+03   9.2945536e+03   9.2955182e+03   9.2966666e+03   9.2979964e+03   9.3008021e+03   9.3047519e+03   9.3099297e+03   9.3160167e+03   9.3236263e+03   9.3323015e+03   9.3420261e+03   9.3524792e+03   9.3629361e+03   9.3730973e+03   9.3826730e+03   9.3916187e+03   9.4014224e+03   9.4118610e+03   9.4231901e+03   9.4351649e+03   9.4482880e+03   9.4622588e+03   9.4770629e+03   9.4923943e+03   9.5081642e+03   9.5241426e+03   9.5408307e+03   9.5580199e+03   9.5760798e+03   9.5948036e+03   9.6145816e+03   9.6350965e+03   9.6564707e+03   9.6783809e+03   9.7081597e+03   9.7414323e+03   9.7777843e+03   9.8153975e+03   9.8509378e+03   9.8789871e+03   9.9307140e+03   9.9818326e+03   1.0033161e+04   1.0085359e+04   1.0133834e+04   1.0178529e+04   1.0219789e+04   1.0257270e+04   1.0292108e+04   1.0323975e+04   1.0353323e+04   1.0379207e+04   1.0402879e+04   1.0419846e+04   1.0433471e+04   1.0443592e+04   1.0453582e+04   1.0461728e+04   1.0469519e+04   1.0476958e+04   1.0484132e+04   1.0492246e+04   1.0502155e+04   1.0513731e+04   1.0524146e+04   1.0535372e+04   1.0548491e+04   1.0562416e+04   1.0575510e+04   1.0586909e+04   1.0597237e+04   1.0604977e+04   1.0618555e+04
1.0228880e+04   1.0159842e+04   1.0111018e+04   1.0072717e+04   1.0038396e+04   1.0011812e+04   9.9917208e+03   9.9771075e+03   9.9567074e+03   9.9300918e+03   9.9116143e+03   9.9092630e+03   9.9166570e+03   9.9281169e+03   9.9395245e+03   9.9461048e+03   9.9578901e+03   9.9828852e+03   9.9931641e+03   9.9937541e+03   9.9929725e+03   9.9921010e+03   9.9915483e+03   9.9898199e+03   9.9873551e+03   9.9829737e+03   9.9770927e+03   9.9700142e+03   9.9622652e+03   9.9547406e+03   9.9476258e+03   9.9400026e+03   9.9314642e+03   9.9246566e+03   9.9246801e+03   9.9310192e+03   9.9376983e+03   9.9417449e+03   9.9442773e+03   9.9464077e+03   9.9487966e+03   9.9613447e+03   9.9722846e+03   9.9701839e+03   9.9500648e+03   9.9167856e+03   9.8840115e+03   9.8608048e+03   9.8404757e+03   9.8193967e+03   9.8001338e+03   9.7814947e+03   9.7642633e+03   9.7536591e+03   9.7453083e+03   9.7399507e+03   9.7354950e+03   9.7249178e+03   9.7076882e+03   9.6880209e+03   9.6701008e+03   9.6564301e+03   9.6432935e+03   9.6273202e+03   9.6213525e+03   9.6175271e+03   9.6137017e+03   9.6108100e+03   9.6079184e+03   9.6062218e+03   9.6045251e+03   9.6036119e+03   9.6026986e+03   9.6000285e+03   9.5986936e+03   9.5973585e+03   9.5967399e+03   9.5962249e+03   9.5959455e+03   9.5959116e+03   9.5960824e+03   9.5964205e+03   9.5969529e+03   9.5976516e+03   9.5984746e+03   9.5994266e+03   9.6005029e+03   9.6016818e+03   9.6029371e+03   9.6042614e+03   9.6056550e+03   9.6082615e+03   9.6117080e+03   9.6160790e+03   9.6211019e+03   9.6273514e+03   9.6343843e+03   9.6422171e+03   9.6505808e+03   9.6590748e+03   9.6675009e+03   9.6757238e+03   9.6836876e+03   9.6926170e+03   9.7021517e+03   9.7124714e+03   9.7233094e+03   9.7350637e+03   9.7474374e+03   9.7605638e+03   9.7741360e+03   9.7881479e+03   9.8024026e+03   9.8174670e+03   9.8331077e+03   9.8497244e+03   9.8670835e+03   9.8856664e+03   9.9051206e+03   9.9256420e+03   9.9468631e+03   9.9768566e+03   1.0010181e+04   1.0046370e+04   1.0083239e+04   1.0119857e+04   1.0151844e+04   1.0203645e+04   1.0254516e+04   1.0305767e+04   1.0357576e+04   1.0406894e+04   1.0452179e+04   1.0494302e+04   1.0532305e+04   1.0567236e+04   1.0596801e+04   1.0623581e+04   1.0646899e+04   1.0668321e+04   1.0684885e+04   1.0699167e+04   1.0710464e+04   1.0720998e+04   1.0729592e+04   1.0737858e+04   1.0745808e+04   1.0753662e+04   1.0762288e+04   1.0771939e+04   1.0782912e+04   1.0793481e+04   1.0804842e+04   1.0817157e+04   1.0829877e+04   1.0841983e+04   1.0852428e+04   1.0861896e+04   1.0868851e+04   1.0880748e+04
1.0467471e+04   1.0399493e+04   1.0349087e+04   1.0309877e+04   1.0275334e+04   1.0248929e+04   1.0228743e+04   1.0213468e+04   1.0194165e+04   1.0171905e+04   1.0156749e+04   1.0154036e+04   1.0159582e+04   1.0169294e+04   1.0179215e+04   1.0184172e+04   1.0190056e+04   1.0197420e+04   1.0205910e+04   1.0207794e+04   1.0207054e+04   1.0205913e+04   1.0205486e+04   1.0203583e+04   1.0200248e+04   1.0196146e+04   1.0191615e+04   1.0186098e+04   1.0179580e+04   1.0173128e+04   1.0167179e+04   1.0160713e+04   1.0153381e+04   1.0148668e+04   1.0151377e+04   1.0161792e+04   1.0172435e+04   1.0178126e+04   1.0180093e+04   1.0178358e+04   1.0176602e+04   1.0188465e+04   1.0200958e+04   1.0195771e+04   1.0171821e+04   1.0140145e+04   1.0112872e+04   1.0090020e+04   1.0069835e+04   1.0052228e+04   1.0037954e+04   1.0029704e+04   1.0025310e+04   1.0024053e+04   1.0020604e+04   1.0018283e+04   1.0015375e+04   1.0006088e+04   9.9916036e+03   9.9773863e+03   9.9658311e+03   9.9564456e+03   9.9437371e+03   9.9246203e+03   9.9190636e+03   9.9155499e+03   9.9120360e+03   9.9096482e+03   9.9072604e+03   9.9061516e+03   9.9050429e+03   9.9047984e+03   9.9045538e+03   9.9031592e+03   9.9024618e+03   9.9017646e+03   9.9017729e+03   9.9018210e+03   9.9020502e+03   9.9024814e+03   9.9030856e+03   9.9038182e+03   9.9047102e+03   9.9057407e+03   9.9068755e+03   9.9081132e+03   9.9094530e+03   9.9108774e+03   9.9123650e+03   9.9139058e+03   9.9154992e+03   9.9181434e+03   9.9214668e+03   9.9255141e+03   9.9300322e+03   9.9355477e+03   9.9416470e+03   9.9483452e+03   9.9554060e+03   9.9625697e+03   9.9697007e+03   9.9767282e+03   9.9836149e+03   9.9914648e+03   9.9998933e+03   1.0009043e+04   1.0018650e+04   1.0029101e+04   1.0040091e+04   1.0051741e+04   1.0063801e+04   1.0076313e+04   1.0089104e+04   1.0102746e+04   1.0117004e+04   1.0132269e+04   1.0148299e+04   1.0165570e+04   1.0183745e+04   1.0203056e+04   1.0223154e+04   1.0252146e+04   1.0285009e+04   1.0320525e+04   1.0356825e+04   1.0392414e+04   1.0424127e+04   1.0474968e+04   1.0525033e+04   1.0575583e+04   1.0626641e+04   1.0675724e+04   1.0720949e+04   1.0763191e+04   1.0801247e+04   1.0836031e+04   1.0864909e+04   1.0891023e+04   1.0913522e+04   1.0934148e+04   1.0950504e+04   1.0965119e+04   1.0977064e+04   1.0988043e+04   1.0997001e+04   1.1005607e+04   1.1013907e+04   1.1022179e+04   1.1031000e+04   1.1040426e+04   1.1050918e+04   1.1061345e+04   1.1072448e+04   1.1084009e+04   1.1095680e+04   1.1106834e+04   1.1116361e+04   1.1124977e+04   1.1131153e+04   1.1141811e+04
1.0705006e+04   1.0636503e+04   1.0584323e+04   1.0544933e+04   1.0511075e+04   1.0485379e+04   1.0465269e+04   1.0449311e+04   1.0431777e+04   1.0414903e+04   1.0404005e+04   1.0401825e+04   1.0406114e+04   1.0414369e+04   1.0422978e+04   1.0428153e+04   1.0426689e+04   1.0425292e+04   1.0431630e+04   1.0435071e+04   1.0435265e+04   1.0434509e+04   1.0433686e+04   1.0431160e+04   1.0427796e+04   1.0424730e+04   1.0421405e+04   1.0417083e+04   1.0411840e+04   1.0406661e+04   1.0401576e+04   1.0395842e+04   1.0389486e+04   1.0385776e+04   1.0391081e+04   1.0404058e+04   1.0415782e+04   1.0421660e+04   1.0421978e+04   1.0415128e+04   1.0412537e+04   1.0425628e+04   1.0442118e+04   1.0437611e+04   1.0417716e+04   1.0388293e+04   1.0364039e+04   1.0347890e+04   1.0335761e+04   1.0328208e+04   1.0323764e+04   1.0326177e+04   1.0330845e+04   1.0331390e+04   1.0327387e+04   1.0323876e+04   1.0318842e+04   1.0307491e+04   1.0294741e+04   1.0286836e+04   1.0281712e+04   1.0276377e+04   1.0269311e+04   1.0262802e+04   1.0256026e+04   1.0250272e+04   1.0244518e+04   1.0243324e+04   1.0242130e+04   1.0227564e+04   1.0212999e+04   1.0213326e+04   1.0213653e+04   1.0212865e+04   1.0212471e+04   1.0212077e+04   1.0212198e+04   1.0212400e+04   1.0212800e+04   1.0213409e+04   1.0214190e+04   1.0215096e+04   1.0216154e+04   1.0217343e+04   1.0218631e+04   1.0220012e+04   1.0221487e+04   1.0223039e+04   1.0224649e+04   1.0226299e+04   1.0227990e+04   1.0230610e+04   1.0233786e+04   1.0237534e+04   1.0241616e+04   1.0246541e+04   1.0251921e+04   1.0257770e+04   1.0263877e+04   1.0269951e+04   1.0275899e+04   1.0281667e+04   1.0287243e+04   1.0293748e+04   1.0300824e+04   1.0308622e+04   1.0316892e+04   1.0326046e+04   1.0335792e+04   1.0346303e+04   1.0357316e+04   1.0368858e+04   1.0380729e+04   1.0393481e+04   1.0406857e+04   1.0421213e+04   1.0436300e+04   1.0452590e+04   1.0469754e+04   1.0488026e+04   1.0507077e+04   1.0535059e+04   1.0566876e+04   1.0601488e+04   1.0636424e+04   1.0668842e+04   1.0694997e+04   1.0744569e+04   1.0793635e+04   1.0843346e+04   1.0893570e+04   1.0942205e+04   1.0987219e+04   1.1029449e+04   1.1067481e+04   1.1102251e+04   1.1131016e+04   1.1157132e+04   1.1179579e+04   1.1200148e+04   1.1216618e+04   1.1231571e+04   1.1244019e+04   1.1255449e+04   1.1264791e+04   1.1273729e+04   1.1282330e+04   1.1290909e+04   1.1299790e+04   1.1309024e+04   1.1319094e+04   1.1329221e+04   1.1339874e+04   1.1350714e+04   1.1361409e+04   1.1371626e+04   1.1380238e+04   1.1387995e+04   1.1393389e+04   1.1402946e+04
1.0941835e+04   1.0874138e+04   1.0821123e+04   1.0782173e+04   1.0749647e+04   1.0725057e+04   1.0705364e+04   1.0689414e+04   1.0674287e+04   1.0662475e+04   1.0655623e+04   1.0654504e+04   1.0658177e+04   1.0665318e+04   1.0673311e+04   1.0679224e+04   1.0675292e+04   1.0671012e+04   1.0675606e+04   1.0679767e+04   1.0681386e+04   1.0681164e+04   1.0679162e+04   1.0675566e+04   1.0673111e+04   1.0671653e+04   1.0669806e+04   1.0666820e+04   1.0663254e+04   1.0659258e+04   1.0654562e+04   1.0649181e+04   1.0643945e+04   1.0641638e+04   1.0647536e+04   1.0657965e+04   1.0665170e+04   1.0667472e+04   1.0665859e+04   1.0659376e+04   1.0660415e+04   1.0672613e+04   1.0686407e+04   1.0686194e+04   1.0672553e+04   1.0649630e+04   1.0633215e+04   1.0627270e+04   1.0624056e+04   1.0623580e+04   1.0624055e+04   1.0628594e+04   1.0632891e+04   1.0631620e+04   1.0626690e+04   1.0620341e+04   1.0611818e+04   1.0601998e+04   1.0594931e+04   1.0591582e+04   1.0589403e+04   1.0586092e+04   1.0588979e+04   1.0600982e+04   1.0592989e+04   1.0584994e+04   1.0576999e+04   1.0576999e+04   1.0576999e+04   1.0548977e+04   1.0520955e+04   1.0521854e+04   1.0522753e+04   1.0522572e+04   1.0522481e+04   1.0522390e+04   1.0522774e+04   1.0523211e+04   1.0523824e+04   1.0524627e+04   1.0525591e+04   1.0526666e+04   1.0527882e+04   1.0529221e+04   1.0530651e+04   1.0532165e+04   1.0533766e+04   1.0535438e+04   1.0537162e+04   1.0538923e+04   1.0540723e+04   1.0543366e+04   1.0546466e+04   1.0550014e+04   1.0553780e+04   1.0558281e+04   1.0563138e+04   1.0568381e+04   1.0573809e+04   1.0579117e+04   1.0584221e+04   1.0589070e+04   1.0593668e+04   1.0599221e+04   1.0605379e+04   1.0612293e+04   1.0619702e+04   1.0628100e+04   1.0637173e+04   1.0647064e+04   1.0657485e+04   1.0668440e+04   1.0679715e+04   1.0691868e+04   1.0704629e+04   1.0718328e+04   1.0732712e+04   1.0748240e+04   1.0764591e+04   1.0781980e+04   1.0800103e+04   1.0826957e+04   1.0857505e+04   1.0890829e+04   1.0924354e+04   1.0954737e+04   1.0978576e+04   1.1027226e+04   1.1075324e+04   1.1124662e+04   1.1174087e+04   1.1222350e+04   1.1267018e+04   1.1309285e+04   1.1347217e+04   1.1382055e+04   1.1410870e+04   1.1437316e+04   1.1459882e+04   1.1480683e+04   1.1497381e+04   1.1512774e+04   1.1525612e+04   1.1537523e+04   1.1547246e+04   1.1556613e+04   1.1565459e+04   1.1574325e+04   1.1583236e+04   1.1592416e+04   1.1602147e+04   1.1612015e+04   1.1622237e+04   1.1632512e+04   1.1642420e+04   1.1651861e+04   1.1659706e+04   1.1666723e+04   1.1671510e+04   1.1681524e+04
1.1176346e+04   1.1113131e+04   1.1061289e+04   1.1023438e+04   1.0992601e+04   1.0969456e+04   1.0950647e+04   1.0935580e+04   1.0923070e+04   1.0915389e+04   1.0911787e+04   1.0911983e+04   1.0915608e+04   1.0922096e+04   1.0929674e+04   1.0935329e+04   1.0932929e+04   1.0930421e+04   1.0934189e+04   1.0938481e+04   1.0941212e+04   1.0941302e+04   1.0938592e+04   1.0934907e+04   1.0933293e+04   1.0932931e+04   1.0932386e+04   1.0931068e+04   1.0929210e+04   1.0926130e+04   1.0922052e+04   1.0917495e+04   1.0913806e+04   1.0913347e+04   1.0918000e+04   1.0922573e+04   1.0923340e+04   1.0920860e+04   1.0917357e+04   1.0914589e+04   1.0918664e+04   1.0924408e+04   1.0929273e+04   1.0928825e+04   1.0920878e+04   1.0912251e+04   1.0911774e+04   1.0914880e+04   1.0918011e+04   1.0921043e+04   1.0923113e+04   1.0923540e+04   1.0921794e+04   1.0916752e+04   1.0908515e+04   1.0898351e+04   1.0887588e+04   1.0879769e+04   1.0875911e+04   1.0872947e+04   1.0870304e+04   1.0867546e+04   1.0867880e+04   1.0868779e+04   1.0864853e+04   1.0861160e+04   1.0857467e+04   1.0857863e+04   1.0858261e+04   1.0844977e+04   1.0831694e+04   1.0833125e+04   1.0834556e+04   1.0834820e+04   1.0834953e+04   1.0835085e+04   1.0835589e+04   1.0836161e+04   1.0836913e+04   1.0837857e+04   1.0838958e+04   1.0840166e+04   1.0841509e+04   1.0842969e+04   1.0844518e+04   1.0846145e+04   1.0847852e+04   1.0849624e+04   1.0851444e+04   1.0853293e+04   1.0855173e+04   1.0857887e+04   1.0861043e+04   1.0864622e+04   1.0868395e+04   1.0872853e+04   1.0877619e+04   1.0882715e+04   1.0887949e+04   1.0893027e+04   1.0897883e+04   1.0902480e+04   1.0906834e+04   1.0912105e+04   1.0917937e+04   1.0924469e+04   1.0931447e+04   1.0939265e+04   1.0947643e+04   1.0956767e+04   1.0966369e+04   1.0976490e+04   1.0986933e+04   1.0998263e+04   1.1010211e+04   1.1023109e+04   1.1036693e+04   1.1051406e+04   1.1066915e+04   1.1083435e+04   1.1100651e+04   1.1126515e+04   1.1155722e+04   1.1187558e+04   1.1219584e+04   1.1249453e+04   1.1275051e+04   1.1322098e+04   1.1368757e+04   1.1416935e+04   1.1465069e+04   1.1512325e+04   1.1556204e+04   1.1598003e+04   1.1635532e+04   1.1670175e+04   1.1698953e+04   1.1725561e+04   1.1748197e+04   1.1769177e+04   1.1786098e+04   1.1801842e+04   1.1814976e+04   1.1827272e+04   1.1837330e+04   1.1847059e+04   1.1856084e+04   1.1865144e+04   1.1874028e+04   1.1883130e+04   1.1892527e+04   1.1902090e+04   1.1911856e+04   1.1921589e+04   1.1930782e+04   1.1939497e+04   1.1946642e+04   1.1952967e+04   1.1957236e+04   1.1967961e+04
1.1410381e+04   1.1353535e+04   1.1304909e+04   1.1268705e+04   1.1239909e+04   1.1218264e+04   1.1200940e+04   1.1187351e+04   1.1177547e+04   1.1172755e+04   1.1171711e+04   1.1173237e+04   1.1177384e+04   1.1183581e+04   1.1190773e+04   1.1195992e+04   1.1196778e+04   1.1197484e+04   1.1201367e+04   1.1205618e+04   1.1209090e+04   1.1209946e+04   1.1207851e+04   1.1204722e+04   1.1203232e+04   1.1203187e+04   1.1203643e+04   1.1203860e+04   1.1203537e+04   1.1201764e+04   1.1199134e+04   1.1196272e+04   1.1194330e+04   1.1194821e+04   1.1197697e+04   1.1197647e+04   1.1193795e+04   1.1187463e+04   1.1181638e+04   1.1179573e+04   1.1182633e+04   1.1183322e+04   1.1182626e+04   1.1180432e+04   1.1178530e+04   1.1182185e+04   1.1192115e+04   1.1201394e+04   1.1209226e+04   1.1215147e+04   1.1218638e+04   1.1217549e+04   1.1213070e+04   1.1204693e+04   1.1193086e+04   1.1181304e+04   1.1169990e+04   1.1162201e+04   1.1157953e+04   1.1154390e+04   1.1151662e+04   1.1149827e+04   1.1145781e+04   1.1136574e+04   1.1136719e+04   1.1137326e+04   1.1137934e+04   1.1138727e+04   1.1139522e+04   1.1140977e+04   1.1142433e+04   1.1144396e+04   1.1146359e+04   1.1147069e+04   1.1147423e+04   1.1147778e+04   1.1148462e+04   1.1149202e+04   1.1150112e+04   1.1151203e+04   1.1152445e+04   1.1153786e+04   1.1155254e+04   1.1156834e+04   1.1158495e+04   1.1160230e+04   1.1162039e+04   1.1163909e+04   1.1165823e+04   1.1167763e+04   1.1169728e+04   1.1172519e+04   1.1175738e+04   1.1179369e+04   1.1183181e+04   1.1187653e+04   1.1192411e+04   1.1197471e+04   1.1202644e+04   1.1207656e+04   1.1212460e+04   1.1217028e+04   1.1221379e+04   1.1226637e+04   1.1232421e+04   1.1238848e+04   1.1245659e+04   1.1253244e+04   1.1261302e+04   1.1269985e+04   1.1279049e+04   1.1288558e+04   1.1298349e+04   1.1308997e+04   1.1320241e+04   1.1332414e+04   1.1345255e+04   1.1359215e+04   1.1373947e+04   1.1389674e+04   1.1406073e+04   1.1431122e+04   1.1459216e+04   1.1489740e+04   1.1520361e+04   1.1549692e+04   1.1576782e+04   1.1622394e+04   1.1667780e+04   1.1714812e+04   1.1761810e+04   1.1808138e+04   1.1851336e+04   1.1892667e+04   1.1929883e+04   1.1964376e+04   1.1993209e+04   1.2019970e+04   1.2042762e+04   1.2063946e+04   1.2081155e+04   1.2097225e+04   1.2110661e+04   1.2123287e+04   1.2133670e+04   1.2143702e+04   1.2152889e+04   1.2162071e+04   1.2170905e+04   1.2179886e+04   1.2188950e+04   1.2198158e+04   1.2207453e+04   1.2216645e+04   1.2225164e+04   1.2233184e+04   1.2239663e+04   1.2245345e+04   1.2249148e+04   1.2259498e+04
1.1646303e+04   1.1595608e+04   1.1551167e+04   1.1517573e+04   1.1490804e+04   1.1470766e+04   1.1455182e+04   1.1443967e+04   1.1436283e+04   1.1433454e+04   1.1434310e+04   1.1437436e+04   1.1442277e+04   1.1448522e+04   1.1455575e+04   1.1461792e+04   1.1464945e+04   1.1468361e+04   1.1473301e+04   1.1478006e+04   1.1482169e+04   1.1484182e+04   1.1483477e+04   1.1481178e+04   1.1479797e+04   1.1479876e+04   1.1480939e+04   1.1482191e+04   1.1483050e+04   1.1482785e+04   1.1481916e+04   1.1480987e+04   1.1480463e+04   1.1480822e+04   1.1481413e+04   1.1478459e+04   1.1472286e+04   1.1463818e+04   1.1456336e+04   1.1452321e+04   1.1451811e+04   1.1449272e+04   1.1446997e+04   1.1446340e+04   1.1450312e+04   1.1459613e+04   1.1472611e+04   1.1485853e+04   1.1497604e+04   1.1506051e+04   1.1511218e+04   1.1511505e+04   1.1507745e+04   1.1500230e+04   1.1489851e+04   1.1478405e+04   1.1467479e+04   1.1459359e+04   1.1454085e+04   1.1450529e+04   1.1448395e+04   1.1447856e+04   1.1446879e+04   1.1444968e+04   1.1445333e+04   1.1446495e+04   1.1447657e+04   1.1449005e+04   1.1450354e+04   1.1452326e+04   1.1454297e+04   1.1456724e+04   1.1459150e+04   1.1460170e+04   1.1460680e+04   1.1461191e+04   1.1461985e+04   1.1462840e+04   1.1463862e+04   1.1465064e+04   1.1466415e+04   1.1467858e+04   1.1469426e+04   1.1471101e+04   1.1472857e+04   1.1474681e+04   1.1476576e+04   1.1478528e+04   1.1480521e+04   1.1482536e+04   1.1484574e+04   1.1487430e+04   1.1490711e+04   1.1494395e+04   1.1498256e+04   1.1502767e+04   1.1507553e+04   1.1512626e+04   1.1517801e+04   1.1522809e+04   1.1527606e+04   1.1532166e+04   1.1536506e+04   1.1541730e+04   1.1547450e+04   1.1553779e+04   1.1560460e+04   1.1567873e+04   1.1575723e+04   1.1584168e+04   1.1592968e+04   1.1602180e+04   1.1611640e+04   1.1621918e+04   1.1632750e+04   1.1644467e+04   1.1656808e+04   1.1670229e+04   1.1684393e+04   1.1699525e+04   1.1715311e+04   1.1739641e+04   1.1766881e+04   1.1796466e+04   1.1825962e+04   1.1853991e+04   1.1879518e+04   1.1923730e+04   1.1967884e+04   1.2013779e+04   1.2059715e+04   1.2105183e+04   1.2147768e+04   1.2188660e+04   1.2225626e+04   1.2260031e+04   1.2288982e+04   1.2315932e+04   1.2338956e+04   1.2360417e+04   1.2377983e+04   1.2394417e+04   1.2408199e+04   1.2421173e+04   1.2431903e+04   1.2442242e+04   1.2451607e+04   1.2460908e+04   1.2469699e+04   1.2478559e+04   1.2487310e+04   1.2496154e+04   1.2504977e+04   1.2513639e+04   1.2521503e+04   1.2528850e+04   1.2534676e+04   1.2539738e+04   1.2543094e+04   1.2552578e+04
1.1884081e+04   1.1839490e+04   1.1798846e+04   1.1769204e+04   1.1744029e+04   1.1726409e+04   1.1712495e+04   1.1704371e+04   1.1697913e+04   1.1697264e+04   1.1699403e+04   1.1704399e+04   1.1709723e+04   1.1716565e+04   1.1724276e+04   1.1731754e+04   1.1735402e+04   1.1740789e+04   1.1747088e+04   1.1752678e+04   1.1757633e+04   1.1760851e+04   1.1761762e+04   1.1760761e+04   1.1759996e+04   1.1760317e+04   1.1761685e+04   1.1763573e+04   1.1765342e+04   1.1766444e+04   1.1767186e+04   1.1767826e+04   1.1768197e+04   1.1767899e+04   1.1766557e+04   1.1762013e+04   1.1755263e+04   1.1746819e+04   1.1739348e+04   1.1734068e+04   1.1731367e+04   1.1728118e+04   1.1726883e+04   1.1729282e+04   1.1735851e+04   1.1746330e+04   1.1759267e+04   1.1772822e+04   1.1785435e+04   1.1794828e+04   1.1801110e+04   1.1802588e+04   1.1800160e+04   1.1795075e+04   1.1787973e+04   1.1779246e+04   1.1770731e+04   1.1764149e+04   1.1759443e+04   1.1756257e+04   1.1754456e+04   1.1754170e+04   1.1754091e+04   1.1753362e+04   1.1753947e+04   1.1755664e+04   1.1757381e+04   1.1759284e+04   1.1761186e+04   1.1763675e+04   1.1766162e+04   1.1769052e+04   1.1771941e+04   1.1773273e+04   1.1773938e+04   1.1774604e+04   1.1775554e+04   1.1776548e+04   1.1777697e+04   1.1779016e+04   1.1780476e+04   1.1782025e+04   1.1783691e+04   1.1785461e+04   1.1787307e+04   1.1789219e+04   1.1791197e+04   1.1793228e+04   1.1795299e+04   1.1797392e+04   1.1799508e+04   1.1802449e+04   1.1805815e+04   1.1809586e+04   1.1813530e+04   1.1818121e+04   1.1822979e+04   1.1828116e+04   1.1833344e+04   1.1838389e+04   1.1843209e+04   1.1847776e+04   1.1852109e+04   1.1857318e+04   1.1863017e+04   1.1869314e+04   1.1875954e+04   1.1883327e+04   1.1891134e+04   1.1899522e+04   1.1908250e+04   1.1917364e+04   1.1926701e+04   1.1936817e+04   1.1947454e+04   1.1958927e+04   1.1970986e+04   1.1984082e+04   1.1997890e+04   1.2012638e+04   1.2028026e+04   1.2051742e+04   1.2078321e+04   1.2107235e+04   1.2136035e+04   1.2163246e+04   1.2187570e+04   1.2230851e+04   1.2274076e+04   1.2319152e+04   1.2364136e+04   1.2408775e+04   1.2450849e+04   1.2491385e+04   1.2528005e+04   1.2562137e+04   1.2591057e+04   1.2618026e+04   1.2641068e+04   1.2662555e+04   1.2680359e+04   1.2697039e+04   1.2711038e+04   1.2724212e+04   1.2735210e+04   1.2745783e+04   1.2755277e+04   1.2764639e+04   1.2773410e+04   1.2782184e+04   1.2790716e+04   1.2799291e+04   1.2807805e+04   1.2816107e+04   1.2823539e+04   1.2830423e+04   1.2835811e+04   1.2840466e+04   1.2843509e+04   1.2851928e+04
1.2124514e+04   1.2085185e+04   1.2048507e+04   1.2022509e+04   1.1999491e+04   1.1984275e+04   1.1972492e+04   1.1966726e+04   1.1961932e+04   1.1963081e+04   1.1966629e+04   1.1972942e+04   1.1979111e+04   1.1986747e+04   1.1995565e+04   1.2003360e+04   1.2007618e+04   1.2014387e+04   1.2021762e+04   1.2028318e+04   1.2034175e+04   1.2038633e+04   1.2041081e+04   1.2041445e+04   1.2041567e+04   1.2042344e+04   1.2044059e+04   1.2046458e+04   1.2048994e+04   1.2051296e+04   1.2053362e+04   1.2055132e+04   1.2055994e+04   1.2055204e+04   1.2052765e+04   1.2047934e+04   1.2041718e+04   1.2034491e+04   1.2028210e+04   1.2023264e+04   1.2020528e+04   1.2018929e+04   1.2019801e+04   1.2023328e+04   1.2029444e+04   1.2038581e+04   1.2049698e+04   1.2061381e+04   1.2072639e+04   1.2081941e+04   1.2088845e+04   1.2091846e+04   1.2091509e+04   1.2088847e+04   1.2084754e+04   1.2079845e+04   1.2074881e+04   1.2070563e+04   1.2067229e+04   1.2064807e+04   1.2063425e+04   1.2063075e+04   1.2063392e+04   1.2063830e+04   1.2065021e+04   1.2067192e+04   1.2069362e+04   1.2071704e+04   1.2074048e+04   1.2076953e+04   1.2079858e+04   1.2083128e+04   1.2086401e+04   1.2088014e+04   1.2088821e+04   1.2089628e+04   1.2090667e+04   1.2091755e+04   1.2093003e+04   1.2094421e+04   1.2095981e+04   1.2097624e+04   1.2099383e+04   1.2101240e+04   1.2103172e+04   1.2105166e+04   1.2107221e+04   1.2109327e+04   1.2111470e+04   1.2113628e+04   1.2115805e+04   1.2118802e+04   1.2122220e+04   1.2126037e+04   1.2130025e+04   1.2134657e+04   1.2139553e+04   1.2144725e+04   1.2149985e+04   1.2155064e+04   1.2159919e+04   1.2164523e+04   1.2168895e+04   1.2174151e+04   1.2179898e+04   1.2186244e+04   1.2192933e+04   1.2200330e+04   1.2208136e+04   1.2216499e+04   1.2225177e+04   1.2234223e+04   1.2243475e+04   1.2253476e+04   1.2263975e+04   1.2275277e+04   1.2287140e+04   1.2300013e+04   1.2313579e+04   1.2328069e+04   1.2343190e+04   1.2366477e+04   1.2392574e+04   1.2420902e+04   1.2449316e+04   1.2476484e+04   1.2501427e+04   1.2543837e+04   1.2586221e+04   1.2630251e+04   1.2674134e+04   1.2717721e+04   1.2759164e+04   1.2799077e+04   1.2835123e+04   1.2868697e+04   1.2897361e+04   1.2924079e+04   1.2946909e+04   1.2968209e+04   1.2986105e+04   1.3002896e+04   1.3016993e+04   1.3030254e+04   1.3041442e+04   1.3052185e+04   1.3061756e+04   1.3071144e+04   1.3079894e+04   1.3088598e+04   1.3096953e+04   1.3105313e+04   1.3113602e+04   1.3121637e+04   1.3128749e+04   1.3135277e+04   1.3140334e+04   1.3144674e+04   1.3147466e+04   1.3154212e+04
1.2367362e+04   1.2332271e+04   1.2299812e+04   1.2276772e+04   1.2256706e+04   1.2243717e+04   1.2234205e+04   1.2229904e+04   1.2227374e+04   1.2229986e+04   1.2235045e+04   1.2242127e+04   1.2249535e+04   1.2257980e+04   1.2267519e+04   1.2275097e+04   1.2281170e+04   1.2288899e+04   1.2297091e+04   1.2304587e+04   1.2311418e+04   1.2317055e+04   1.2320814e+04   1.2322370e+04   1.2323434e+04   1.2324883e+04   1.2327107e+04   1.2330041e+04   1.2333256e+04   1.2336500e+04   1.2339560e+04   1.2342073e+04   1.2343311e+04   1.2342535e+04   1.2340110e+04   1.2335822e+04   1.2330670e+04   1.2325106e+04   1.2320691e+04   1.2317471e+04   1.2316227e+04   1.2316542e+04   1.2318977e+04   1.2322899e+04   1.2328060e+04   1.2335368e+04   1.2344243e+04   1.2353837e+04   1.2363430e+04   1.2371885e+04   1.2378737e+04   1.2382745e+04   1.2384271e+04   1.2384060e+04   1.2382755e+04   1.2380612e+04   1.2378286e+04   1.2376029e+04   1.2374234e+04   1.2372901e+04   1.2372269e+04   1.2372453e+04   1.2373244e+04   1.2374298e+04   1.2376095e+04   1.2378719e+04   1.2381342e+04   1.2384126e+04   1.2386910e+04   1.2390230e+04   1.2393552e+04   1.2397206e+04   1.2400859e+04   1.2402755e+04   1.2403704e+04   1.2404653e+04   1.2405812e+04   1.2407017e+04   1.2408375e+04   1.2409897e+04   1.2411558e+04   1.2413297e+04   1.2415146e+04   1.2417090e+04   1.2419106e+04   1.2421180e+04   1.2423311e+04   1.2425490e+04   1.2427703e+04   1.2429929e+04   1.2432170e+04   1.2435231e+04   1.2438709e+04   1.2442586e+04   1.2446630e+04   1.2451312e+04   1.2456251e+04   1.2461459e+04   1.2466746e+04   1.2471856e+04   1.2476746e+04   1.2481398e+04   1.2485828e+04   1.2491154e+04   1.2496981e+04   1.2503410e+04   1.2510188e+04   1.2517661e+04   1.2525526e+04   1.2533921e+04   1.2542608e+04   1.2551636e+04   1.2560851e+04   1.2570786e+04   1.2581192e+04   1.2592372e+04   1.2604081e+04   1.2616783e+04   1.2630155e+04   1.2644438e+04   1.2659346e+04   1.2682330e+04   1.2708012e+04   1.2735954e+04   1.2764054e+04   1.2791362e+04   1.2816624e+04   1.2858317e+04   1.2899939e+04   1.2943026e+04   1.2985817e+04   1.3028408e+04   1.3069212e+04   1.3108531e+04   1.3143961e+04   1.3176953e+04   1.3205289e+04   1.3231704e+04   1.3254239e+04   1.3275289e+04   1.3293214e+04   1.3310064e+04   1.3324204e+04   1.3337505e+04   1.3348845e+04   1.3359720e+04   1.3369340e+04   1.3378733e+04   1.3387452e+04   1.3396086e+04   1.3404278e+04   1.3412443e+04   1.3420540e+04   1.3428355e+04   1.3435204e+04   1.3441444e+04   1.3446239e+04   1.3450327e+04   1.3452909e+04   1.3457814e+04
1.2610602e+04   1.2579084e+04   1.2550225e+04   1.2530096e+04   1.2512891e+04   1.2502165e+04   1.2494632e+04   1.2492047e+04   1.2491655e+04   1.2495868e+04   1.2502258e+04   1.2510356e+04   1.2518960e+04   1.2528269e+04   1.2538173e+04   1.2546524e+04   1.2554199e+04   1.2562899e+04   1.2571877e+04   1.2580340e+04   1.2588247e+04   1.2595121e+04   1.2600150e+04   1.2602918e+04   1.2605051e+04   1.2607351e+04   1.2610295e+04   1.2613904e+04   1.2617850e+04   1.2621928e+04   1.2625804e+04   1.2628939e+04   1.2630648e+04   1.2630470e+04   1.2628906e+04   1.2625845e+04   1.2622368e+04   1.2618997e+04   1.2616854e+04   1.2615961e+04   1.2616715e+04   1.2618838e+04   1.2622372e+04   1.2626401e+04   1.2630761e+04   1.2636256e+04   1.2642918e+04   1.2650384e+04   1.2658171e+04   1.2665370e+04   1.2671640e+04   1.2676118e+04   1.2678968e+04   1.2680670e+04   1.2681560e+04   1.2681628e+04   1.2681364e+04   1.2680926e+04   1.2680675e+04   1.2680586e+04   1.2680952e+04   1.2681947e+04   1.2683462e+04   1.2685265e+04   1.2687688e+04   1.2690759e+04   1.2693830e+04   1.2697028e+04   1.2700225e+04   1.2703930e+04   1.2707633e+04   1.2711637e+04   1.2715640e+04   1.2717788e+04   1.2718861e+04   1.2719935e+04   1.2721192e+04   1.2722492e+04   1.2723944e+04   1.2725557e+04   1.2727305e+04   1.2729129e+04   1.2731058e+04   1.2733080e+04   1.2735171e+04   1.2737317e+04   1.2739518e+04   1.2741764e+04   1.2744041e+04   1.2746329e+04   1.2748631e+04   1.2751750e+04   1.2755283e+04   1.2759213e+04   1.2763310e+04   1.2768020e+04   1.2772965e+04   1.2778152e+04   1.2783395e+04   1.2788478e+04   1.2793363e+04   1.2798045e+04   1.2802539e+04   1.2807957e+04   1.2813894e+04   1.2820445e+04   1.2827347e+04   1.2834923e+04   1.2842864e+04   1.2851305e+04   1.2860009e+04   1.2869036e+04   1.2878235e+04   1.2888114e+04   1.2898414e+04   1.2909404e+04   1.2920833e+04   1.2933199e+04   1.2946200e+04   1.2960136e+04   1.2974737e+04   1.2997500e+04   1.3023090e+04   1.3050708e+04   1.3078732e+04   1.3106570e+04   1.3133060e+04   1.3174143e+04   1.3215090e+04   1.3257260e+04   1.3298943e+04   1.3340591e+04   1.3380854e+04   1.3419596e+04   1.3454358e+04   1.3486731e+04   1.3514712e+04   1.3540751e+04   1.3562893e+04   1.3583663e+04   1.3601619e+04   1.3618486e+04   1.3632604e+04   1.3645906e+04   1.3657374e+04   1.3668337e+04   1.3677952e+04   1.3687316e+04   1.3695985e+04   1.3704518e+04   1.3712514e+04   1.3720473e+04   1.3728375e+04   1.3735969e+04   1.3742543e+04   1.3748490e+04   1.3753022e+04   1.3756859e+04   1.3759226e+04   1.3762183e+04
1.2853667e+04   1.2825184e+04   1.2799443e+04   1.2782057e+04   1.2767533e+04   1.2758997e+04   1.2753368e+04   1.2752625e+04   1.2754275e+04   1.2760123e+04   1.2767879e+04   1.2777127e+04   1.2786942e+04   1.2797172e+04   1.2807634e+04   1.2816912e+04   1.2826018e+04   1.2835740e+04   1.2845614e+04   1.2855113e+04   1.2864169e+04   1.2872351e+04   1.2878746e+04   1.2882875e+04   1.2886248e+04   1.2889633e+04   1.2893570e+04   1.2898082e+04   1.2902890e+04   1.2907808e+04   1.2912478e+04   1.2916315e+04   1.2918807e+04   1.2919691e+04   1.2919553e+04   1.2918435e+04   1.2917217e+04   1.2916283e+04   1.2916387e+04   1.2917485e+04   1.2919740e+04   1.2922815e+04   1.2926666e+04   1.2930359e+04   1.2933974e+04   1.2938289e+04   1.2943458e+04   1.2949413e+04   1.2955795e+04   1.2962013e+04   1.2967754e+04   1.2972482e+04   1.2976248e+04   1.2979323e+04   1.2981857e+04   1.2983624e+04   1.2985015e+04   1.2986061e+04   1.2987145e+04   1.2988206e+04   1.2989563e+04   1.2991414e+04   1.2993694e+04   1.2996234e+04   1.2999281e+04   1.3002799e+04   1.3006318e+04   1.3009930e+04   1.3013542e+04   1.3017628e+04   1.3021715e+04   1.3026069e+04   1.3030422e+04   1.3032820e+04   1.3034018e+04   1.3035218e+04   1.3036578e+04   1.3037978e+04   1.3039524e+04   1.3041228e+04   1.3043064e+04   1.3044972e+04   1.3046981e+04   1.3049081e+04   1.3051246e+04   1.3053464e+04   1.3055733e+04   1.3058045e+04   1.3060387e+04   1.3062736e+04   1.3065099e+04   1.3068274e+04   1.3071860e+04   1.3075841e+04   1.3079985e+04   1.3084683e+04   1.3089559e+04   1.3094612e+04   1.3099668e+04   1.3104562e+04   1.3109270e+04   1.3113813e+04   1.3118207e+04   1.3123655e+04   1.3129695e+04   1.3136408e+04   1.3143486e+04   1.3151220e+04   1.3159266e+04   1.3167791e+04   1.3176545e+04   1.3185613e+04   1.3194835e+04   1.3204621e+04   1.3214683e+04   1.3225221e+04   1.3236004e+04   1.3247711e+04   1.3260059e+04   1.3273480e+04   1.3287671e+04   1.3310726e+04   1.3336439e+04   1.3363837e+04   1.3391282e+04   1.3418565e+04   1.3445841e+04   1.3486666e+04   1.3527198e+04   1.3568148e+04   1.3608487e+04   1.3649852e+04   1.3689746e+04   1.3727836e+04   1.3761899e+04   1.3794032e+04   1.3821746e+04   1.3847225e+04   1.3868661e+04   1.3889160e+04   1.3907034e+04   1.3923696e+04   1.3937630e+04   1.3950948e+04   1.3962553e+04   1.3973557e+04   1.3983164e+04   1.3992582e+04   1.4001306e+04   1.4009804e+04   1.4017710e+04   1.4025614e+04   1.4033464e+04   1.4040984e+04   1.4047698e+04   1.4053798e+04   1.4058401e+04   1.4062321e+04   1.4064747e+04   1.4065937e+04
1.3096672e+04   1.3070872e+04   1.3047910e+04   1.3033095e+04   1.3021074e+04   1.3014620e+04   1.3010859e+04   1.3011993e+04   1.3015602e+04   1.3023070e+04   1.3032233e+04   1.3042706e+04   1.3053738e+04   1.3064960e+04   1.3076183e+04   1.3086441e+04   1.3096787e+04   1.3107580e+04   1.3118476e+04   1.3129085e+04   1.3139349e+04   1.3148851e+04   1.3156632e+04   1.3162123e+04   1.3166697e+04   1.3171077e+04   1.3175968e+04   1.3181520e+04   1.3187366e+04   1.3193272e+04   1.3198876e+04   1.3203626e+04   1.3207216e+04   1.3209501e+04   1.3211157e+04   1.3212276e+04   1.3213378e+04   1.3214774e+04   1.3216842e+04   1.3219565e+04   1.3222935e+04   1.3226643e+04   1.3230626e+04   1.3234200e+04   1.3237539e+04   1.3241313e+04   1.3245759e+04   1.3250828e+04   1.3256301e+04   1.3261774e+04   1.3267030e+04   1.3271769e+04   1.3276023e+04   1.3279987e+04   1.3283650e+04   1.3286671e+04   1.3289312e+04   1.3291562e+04   1.3293764e+04   1.3295854e+04   1.3298147e+04   1.3300838e+04   1.3303918e+04   1.3307340e+04   1.3311025e+04   1.3314997e+04   1.3318969e+04   1.3322993e+04   1.3327016e+04   1.3331479e+04   1.3335941e+04   1.3340637e+04   1.3345333e+04   1.3347970e+04   1.3349289e+04   1.3350608e+04   1.3352062e+04   1.3353556e+04   1.3355193e+04   1.3356984e+04   1.3358905e+04   1.3360893e+04   1.3362981e+04   1.3365156e+04   1.3367394e+04   1.3369681e+04   1.3372018e+04   1.3374394e+04   1.3376798e+04   1.3379209e+04   1.3381631e+04   1.3384858e+04   1.3388491e+04   1.3392514e+04   1.3396698e+04   1.3401308e+04   1.3406000e+04   1.3410764e+04   1.3415456e+04   1.3419965e+04   1.3424297e+04   1.3428491e+04   1.3432577e+04   1.3437908e+04   1.3443942e+04   1.3450743e+04   1.3457944e+04   1.3465823e+04   1.3473995e+04   1.3482657e+04   1.3491534e+04   1.3500727e+04   1.3510060e+04   1.3519762e+04   1.3529558e+04   1.3539569e+04   1.3549612e+04   1.3560605e+04   1.3572258e+04   1.3585126e+04   1.3598854e+04   1.3622151e+04   1.3647875e+04   1.3675236e+04   1.3701788e+04   1.3727660e+04   1.3753751e+04   1.3794814e+04   1.3835337e+04   1.3875243e+04   1.3914340e+04   1.3955838e+04   1.3995568e+04   1.4033205e+04   1.4066748e+04   1.4098947e+04   1.4126555e+04   1.4151460e+04   1.4172137e+04   1.4192413e+04   1.4210158e+04   1.4226565e+04   1.4240297e+04   1.4253688e+04   1.4265457e+04   1.4276527e+04   1.4286169e+04   1.4295726e+04   1.4304581e+04   1.4313118e+04   1.4321026e+04   1.4328977e+04   1.4336861e+04   1.4344463e+04   1.4351555e+04   1.4358054e+04   1.4362931e+04   1.4367119e+04   1.4369767e+04   1.4370787e+04
1.3339750e+04   1.3316474e+04   1.3296128e+04   1.3283792e+04   1.3274174e+04   1.3269733e+04   1.3267839e+04   1.3270874e+04   1.3276391e+04   1.3285459e+04   1.3296059e+04   1.3307801e+04   1.3320048e+04   1.3332305e+04   1.3344413e+04   1.3355663e+04   1.3367127e+04   1.3379010e+04   1.3391011e+04   1.3402790e+04   1.3414298e+04   1.3425090e+04   1.3434172e+04   1.3440906e+04   1.3446459e+04   1.3451515e+04   1.3457121e+04   1.3463650e+04   1.3470637e+04   1.3477706e+04   1.3484452e+04   1.3490341e+04   1.3495220e+04   1.3499092e+04   1.3502507e+04   1.3505488e+04   1.3508383e+04   1.3511437e+04   1.3514936e+04   1.3518840e+04   1.3523166e+04   1.3527572e+04   1.3532100e+04   1.3536180e+04   1.3540061e+04   1.3544296e+04   1.3548983e+04   1.3554057e+04   1.3559262e+04   1.3564383e+04   1.3569271e+04   1.3573881e+04   1.3578275e+04   1.3582641e+04   1.3586865e+04   1.3590534e+04   1.3593913e+04   1.3596956e+04   1.3600006e+04   1.3602957e+04   1.3606113e+04   1.3609709e+04   1.3613842e+04   1.3618445e+04   1.3622771e+04   1.3627196e+04   1.3631622e+04   1.3636056e+04   1.3640491e+04   1.3645330e+04   1.3650169e+04   1.3655206e+04   1.3660244e+04   1.3663121e+04   1.3664559e+04   1.3665998e+04   1.3667548e+04   1.3669136e+04   1.3670863e+04   1.3672741e+04   1.3674747e+04   1.3676816e+04   1.3678982e+04   1.3681231e+04   1.3683543e+04   1.3685899e+04   1.3688303e+04   1.3690746e+04   1.3693212e+04   1.3695685e+04   1.3698165e+04   1.3701446e+04   1.3705131e+04   1.3709202e+04   1.3713431e+04   1.3717998e+04   1.3722575e+04   1.3727144e+04   1.3731580e+04   1.3735814e+04   1.3739862e+04   1.3743781e+04   1.3747603e+04   1.3752749e+04   1.3758649e+04   1.3765369e+04   1.3772516e+04   1.3780345e+04   1.3788468e+04   1.3797115e+04   1.3805999e+04   1.3815230e+04   1.3824617e+04   1.3834250e+04   1.3843870e+04   1.3853506e+04   1.3863018e+04   1.3873431e+04   1.3884482e+04   1.3896813e+04   1.3910048e+04   1.3933098e+04   1.3958678e+04   1.3985771e+04   1.4011772e+04   1.4036564e+04   1.4061468e+04   1.4102532e+04   1.4142987e+04   1.4182263e+04   1.4220603e+04   1.4261970e+04   1.4301410e+04   1.4338637e+04   1.4371798e+04   1.4403917e+04   1.4431316e+04   1.4455732e+04   1.4475725e+04   1.4495614e+04   1.4513089e+04   1.4529205e+04   1.4542729e+04   1.4556100e+04   1.4567955e+04   1.4579082e+04   1.4588762e+04   1.4598421e+04   1.4607376e+04   1.4615974e+04   1.4623913e+04   1.4631919e+04   1.4639848e+04   1.4647565e+04   1.4655129e+04   1.4662123e+04   1.4667355e+04   1.4671871e+04   1.4674793e+04   1.4676373e+04
1.3582097e+04   1.3561053e+04   1.3543027e+04   1.3532966e+04   1.3525534e+04   1.3523025e+04   1.3522959e+04   1.3527932e+04   1.3535338e+04   1.3546055e+04   1.3558169e+04   1.3571282e+04   1.3584821e+04   1.3598219e+04   1.3611364e+04   1.3623696e+04   1.3636297e+04   1.3649332e+04   1.3662527e+04   1.3675563e+04   1.3688380e+04   1.3700473e+04   1.3710569e+04   1.3718080e+04   1.3724476e+04   1.3730439e+04   1.3736940e+04   1.3744479e+04   1.3752633e+04   1.3760953e+04   1.3768943e+04   1.3776102e+04   1.3782339e+04   1.3787768e+04   1.3792599e+04   1.3796915e+04   1.3801023e+04   1.3805233e+04   1.3809840e+04   1.3814843e+04   1.3820292e+04   1.3825889e+04   1.3831728e+04   1.3837273e+04   1.3842799e+04   1.3848511e+04   1.3854289e+04   1.3859886e+04   1.3865110e+04   1.3869898e+04   1.3874276e+04   1.3878414e+04   1.3882522e+04   1.3886751e+04   1.3890866e+04   1.3894582e+04   1.3898204e+04   1.3901722e+04   1.3905417e+04   1.3909145e+04   1.3913149e+04   1.3917847e+04   1.3923048e+04   1.3928493e+04   1.3934356e+04   1.3939241e+04   1.3944126e+04   1.3948977e+04   1.3953829e+04   1.3959053e+04   1.3964276e+04   1.3969662e+04   1.3975047e+04   1.3978151e+04   1.3979702e+04   1.3981254e+04   1.3982908e+04   1.3984597e+04   1.3986422e+04   1.3988395e+04   1.3990492e+04   1.3992648e+04   1.3994898e+04   1.3997228e+04   1.3999617e+04   1.4002050e+04   1.4004526e+04   1.4007036e+04   1.4009571e+04   1.4012107e+04   1.4014650e+04   1.4017991e+04   1.4021735e+04   1.4025864e+04   1.4030154e+04   1.4034714e+04   1.4039245e+04   1.4043717e+04   1.4048025e+04   1.4052086e+04   1.4055928e+04   1.4059606e+04   1.4063157e+04   1.4068087e+04   1.4073798e+04   1.4080362e+04   1.4087375e+04   1.4095084e+04   1.4103107e+04   1.4111690e+04   1.4120541e+04   1.4129765e+04   1.4139156e+04   1.4148697e+04   1.4158165e+04   1.4167545e+04   1.4176738e+04   1.4186844e+04   1.4197581e+04   1.4209592e+04   1.4222468e+04   1.4245089e+04   1.4270075e+04   1.4296745e+04   1.4322020e+04   1.4345460e+04   1.4368087e+04   1.4409037e+04   1.4449350e+04   1.4488158e+04   1.4525984e+04   1.4567123e+04   1.4606110e+04   1.4642935e+04   1.4675826e+04   1.4707854e+04   1.4735017e+04   1.4759055e+04   1.4778495e+04   1.4797955e+04   1.4815090e+04   1.4830944e+04   1.4844325e+04   1.4857666e+04   1.4869597e+04   1.4880825e+04   1.4890604e+04   1.4900381e+04   1.4909451e+04   1.4918147e+04   1.4926159e+04   1.4934233e+04   1.4942211e+04   1.4950060e+04   1.4958137e+04   1.4965670e+04   1.4971289e+04   1.4976157e+04   1.4979375e+04   1.4981836e+04
1.3823701e+04   1.3804613e+04   1.3788639e+04   1.3780629e+04   1.3775178e+04   1.3774500e+04   1.3776208e+04   1.3783113e+04   1.3792382e+04   1.3804779e+04   1.3818460e+04   1.3833021e+04   1.3847918e+04   1.3862551e+04   1.3876858e+04   1.3890348e+04   1.3904111e+04   1.3918341e+04   1.3932778e+04   1.3947121e+04   1.3961288e+04   1.3974480e+04   1.3984945e+04   1.3992745e+04   1.4000127e+04   1.4007404e+04   1.4015125e+04   1.4023795e+04   1.4033115e+04   1.4042645e+04   1.4051850e+04   1.4060211e+04   1.4067626e+04   1.4074094e+04   1.4079689e+04   1.4084580e+04   1.4089295e+04   1.4094154e+04   1.4099652e+04   1.4105741e+04   1.4112712e+04   1.4120192e+04   1.4128405e+04   1.4136713e+04   1.4145284e+04   1.4153381e+04   1.4160779e+04   1.4167024e+04   1.4172288e+04   1.4176633e+04   1.4180371e+04   1.4183900e+04   1.4187503e+04   1.4191054e+04   1.4194477e+04   1.4197833e+04   1.4201457e+04   1.4205330e+04   1.4209613e+04   1.4214110e+04   1.4218994e+04   1.4224681e+04   1.4231155e+04   1.4238540e+04   1.4245943e+04   1.4251286e+04   1.4256629e+04   1.4261898e+04   1.4267168e+04   1.4272775e+04   1.4278383e+04   1.4284116e+04   1.4289849e+04   1.4293180e+04   1.4294846e+04   1.4296511e+04   1.4298257e+04   1.4300038e+04   1.4301954e+04   1.4304017e+04   1.4306202e+04   1.4308446e+04   1.4310778e+04   1.4313189e+04   1.4315658e+04   1.4318167e+04   1.4320716e+04   1.4323296e+04   1.4325899e+04   1.4328501e+04   1.4331105e+04   1.4334514e+04   1.4338324e+04   1.4342523e+04   1.4346879e+04   1.4351478e+04   1.4356037e+04   1.4360528e+04   1.4364848e+04   1.4368898e+04   1.4372700e+04   1.4376293e+04   1.4379718e+04   1.4384478e+04   1.4389995e+04   1.4396354e+04   1.4403169e+04   1.4410698e+04   1.4418583e+04   1.4427059e+04   1.4435833e+04   1.4444993e+04   1.4454330e+04   1.4463829e+04   1.4473304e+04   1.4482741e+04   1.4492046e+04   1.4502206e+04   1.4512926e+04   1.4524769e+04   1.4537360e+04   1.4559027e+04   1.4583134e+04   1.4609184e+04   1.4634155e+04   1.4657199e+04   1.4678111e+04   1.4718616e+04   1.4758615e+04   1.4797468e+04   1.4835242e+04   1.4875623e+04   1.4914014e+04   1.4950503e+04   1.4983172e+04   1.5014711e+04   1.5041477e+04   1.5065264e+04   1.5084434e+04   1.5103404e+04   1.5120193e+04   1.5135897e+04   1.5149234e+04   1.5162473e+04   1.5174396e+04   1.5185709e+04   1.5195603e+04   1.5205471e+04   1.5214714e+04   1.5223633e+04   1.5231900e+04   1.5240207e+04   1.5248486e+04   1.5256756e+04   1.5265467e+04   1.5273624e+04   1.5279784e+04   1.5285158e+04   1.5288775e+04   1.5291928e+04
1.4064936e+04   1.4047611e+04   1.4033499e+04   1.4027349e+04   1.4023706e+04   1.4024757e+04   1.4028177e+04   1.4036969e+04   1.4048085e+04   1.4062162e+04   1.4077439e+04   1.4093478e+04   1.4109780e+04   1.4125707e+04   1.4141253e+04   1.4155944e+04   1.4170912e+04   1.4186360e+04   1.4202064e+04   1.4217734e+04   1.4233277e+04   1.4247450e+04   1.4258361e+04   1.4266535e+04   1.4274647e+04   1.4283054e+04   1.4292072e+04   1.4301984e+04   1.4312552e+04   1.4323275e+04   1.4333720e+04   1.4343259e+04   1.4351859e+04   1.4359163e+04   1.4365435e+04   1.4370795e+04   1.4376149e+04   1.4381637e+04   1.4388086e+04   1.4395342e+04   1.4403934e+04   1.4413493e+04   1.4424208e+04   1.4435456e+04   1.4447050e+04   1.4457258e+04   1.4466029e+04   1.4472810e+04   1.4478197e+04   1.4482242e+04   1.4485615e+04   1.4488693e+04   1.4491883e+04   1.4494746e+04   1.4497543e+04   1.4500687e+04   1.4504454e+04   1.4508753e+04   1.4513636e+04   1.4518894e+04   1.4524608e+04   1.4531011e+04   1.4538422e+04   1.4547358e+04   1.4555509e+04   1.4561872e+04   1.4568235e+04   1.4574568e+04   1.4580901e+04   1.4586428e+04   1.4591953e+04   1.4598025e+04   1.4604098e+04   1.4607630e+04   1.4609397e+04   1.4611163e+04   1.4613012e+04   1.4614888e+04   1.4616894e+04   1.4619044e+04   1.4621315e+04   1.4623639e+04   1.4626050e+04   1.4628539e+04   1.4631084e+04   1.4633666e+04   1.4636288e+04   1.4638938e+04   1.4641608e+04   1.4644277e+04   1.4646950e+04   1.4650441e+04   1.4654343e+04   1.4658638e+04   1.4663094e+04   1.4667838e+04   1.4672579e+04   1.4677289e+04   1.4681850e+04   1.4686120e+04   1.4690115e+04   1.4693857e+04   1.4697386e+04   1.4702131e+04   1.4707559e+04   1.4713773e+04   1.4720424e+04   1.4727769e+04   1.4735491e+04   1.4743803e+04   1.4752428e+04   1.4761438e+04   1.4770636e+04   1.4780089e+04   1.4789612e+04   1.4799213e+04   1.4808776e+04   1.4819087e+04   1.4829870e+04   1.4841605e+04   1.4853967e+04   1.4874719e+04   1.4898038e+04   1.4923284e+04   1.4948170e+04   1.4971576e+04   1.4992578e+04   1.5032139e+04   1.5071462e+04   1.5110431e+04   1.5148227e+04   1.5187240e+04   1.5224614e+04   1.5260610e+04   1.5292975e+04   1.5323669e+04   1.5349802e+04   1.5373395e+04   1.5392400e+04   1.5410755e+04   1.5427138e+04   1.5442740e+04   1.5456087e+04   1.5469146e+04   1.5480997e+04   1.5492395e+04   1.5502413e+04   1.5512350e+04   1.5521773e+04   1.5531030e+04   1.5539715e+04   1.5548381e+04   1.5557103e+04   1.5565912e+04   1.5575324e+04   1.5584160e+04   1.5590941e+04   1.5596894e+04   1.5600964e+04   1.5604264e+04
1.4306074e+04   1.4290446e+04   1.4278120e+04   1.4273711e+04   1.4271778e+04   1.4274482e+04   1.4279596e+04   1.4290266e+04   1.4303242e+04   1.4319010e+04   1.4335911e+04   1.4353456e+04   1.4371201e+04   1.4388459e+04   1.4405289e+04   1.4421232e+04   1.4437445e+04   1.4454123e+04   1.4471104e+04   1.4488112e+04   1.4505040e+04   1.4520543e+04   1.4532482e+04   1.4541032e+04   1.4549323e+04   1.4558434e+04   1.4568608e+04   1.4579820e+04   1.4591708e+04   1.4603735e+04   1.4615540e+04   1.4626511e+04   1.4636613e+04   1.4645333e+04   1.4653006e+04   1.4659746e+04   1.4666468e+04   1.4673334e+04   1.4681077e+04   1.4689626e+04   1.4699346e+04   1.4710063e+04   1.4721768e+04   1.4733968e+04   1.4746336e+04   1.4757094e+04   1.4766372e+04   1.4773608e+04   1.4779470e+04   1.4784028e+04   1.4787951e+04   1.4791525e+04   1.4795123e+04   1.4798385e+04   1.4801630e+04   1.4805347e+04   1.4809693e+04   1.4814609e+04   1.4820117e+04   1.4826023e+04   1.4832367e+04   1.4839426e+04   1.4847337e+04   1.4856177e+04   1.4865073e+04   1.4872457e+04   1.4879843e+04   1.4887239e+04   1.4894636e+04   1.4900080e+04   1.4905523e+04   1.4911935e+04   1.4918347e+04   1.4922080e+04   1.4923948e+04   1.4925814e+04   1.4927754e+04   1.4929720e+04   1.4931814e+04   1.4934050e+04   1.4936405e+04   1.4938810e+04   1.4941300e+04   1.4943866e+04   1.4946486e+04   1.4949142e+04   1.4951834e+04   1.4954553e+04   1.4957292e+04   1.4960026e+04   1.4962763e+04   1.4966321e+04   1.4970293e+04   1.4974664e+04   1.4979199e+04   1.4984038e+04   1.4988889e+04   1.4993726e+04   1.4998432e+04   1.5002842e+04   1.5006959e+04   1.5010799e+04   1.5014402e+04   1.5019210e+04   1.5024682e+04   1.5030919e+04   1.5037576e+04   1.5044916e+04   1.5052623e+04   1.5060902e+04   1.5069477e+04   1.5078418e+04   1.5087529e+04   1.5096895e+04   1.5106351e+04   1.5115926e+04   1.5125504e+04   1.5135855e+04   1.5146667e+04   1.5158371e+04   1.5170641e+04   1.5191077e+04   1.5213860e+04   1.5238511e+04   1.5262900e+04   1.5286131e+04   1.5307344e+04   1.5346590e+04   1.5385435e+04   1.5424575e+04   1.5462392e+04   1.5499197e+04   1.5534585e+04   1.5569414e+04   1.5601473e+04   1.5631204e+04   1.5656616e+04   1.5680168e+04   1.5699499e+04   1.5717486e+04   1.5733396e+04   1.5748927e+04   1.5762527e+04   1.5775568e+04   1.5787372e+04   1.5798956e+04   1.5809319e+04   1.5819318e+04   1.5828992e+04   1.5838911e+04   1.5848132e+04   1.5857228e+04   1.5866466e+04   1.5875859e+04   1.5885990e+04   1.5895539e+04   1.5902976e+04   1.5909544e+04   1.5914087e+04   1.5917676e+04
1.4546366e+04   1.4531825e+04   1.4520601e+04   1.4517612e+04   1.4517090e+04   1.4521314e+04   1.4528005e+04   1.4540530e+04   1.4555354e+04   1.4572868e+04   1.4591449e+04   1.4610586e+04   1.4629867e+04   1.4648560e+04   1.4666786e+04   1.4684091e+04   1.4701670e+04   1.4719726e+04   1.4738111e+04   1.4756578e+04   1.4775007e+04   1.4792203e+04   1.4805612e+04   1.4814870e+04   1.4823610e+04   1.4833394e+04   1.4844599e+04   1.4857057e+04   1.4870234e+04   1.4883604e+04   1.4896805e+04   1.4909319e+04   1.4921066e+04   1.4931551e+04   1.4941082e+04   1.4949733e+04   1.4958261e+04   1.4966824e+04   1.4975944e+04   1.4985546e+04   1.4995891e+04   1.5006819e+04   1.5018358e+04   1.5030066e+04   1.5041793e+04   1.5052380e+04   1.5061896e+04   1.5069859e+04   1.5076771e+04   1.5082652e+04   1.5087988e+04   1.5092916e+04   1.5097735e+04   1.5102267e+04   1.5106776e+04   1.5111527e+04   1.5116706e+04   1.5122300e+04   1.5128366e+04   1.5134738e+04   1.5141477e+04   1.5148949e+04   1.5157076e+04   1.5165713e+04   1.5174545e+04   1.5182150e+04   1.5189754e+04   1.5197555e+04   1.5205355e+04   1.5212162e+04   1.5218969e+04   1.5225723e+04   1.5232475e+04   1.5236444e+04   1.5238428e+04   1.5240412e+04   1.5242448e+04   1.5244508e+04   1.5246694e+04   1.5249017e+04   1.5251457e+04   1.5253946e+04   1.5256514e+04   1.5259157e+04   1.5261852e+04   1.5264580e+04   1.5267342e+04   1.5270131e+04   1.5272935e+04   1.5275736e+04   1.5278535e+04   1.5282159e+04   1.5286198e+04   1.5290637e+04   1.5295242e+04   1.5300153e+04   1.5305081e+04   1.5309999e+04   1.5314791e+04   1.5319290e+04   1.5323498e+04   1.5327425e+04   1.5331111e+04   1.5335997e+04   1.5341542e+04   1.5347844e+04   1.5354558e+04   1.5361944e+04   1.5369683e+04   1.5377978e+04   1.5386555e+04   1.5395478e+04   1.5404557e+04   1.5413880e+04   1.5423287e+04   1.5432809e+04   1.5442335e+04   1.5452623e+04   1.5463366e+04   1.5474993e+04   1.5487172e+04   1.5507462e+04   1.5529991e+04   1.5554253e+04   1.5578191e+04   1.5601136e+04   1.5622511e+04   1.5661674e+04   1.5700186e+04   1.5739733e+04   1.5777827e+04   1.5812249e+04   1.5845257e+04   1.5878602e+04   1.5910188e+04   1.5938888e+04   1.5963500e+04   1.5987064e+04   1.6006846e+04   1.6024546e+04   1.6039991e+04   1.6055423e+04   1.6069275e+04   1.6082324e+04   1.6094079e+04   1.6105861e+04   1.6116598e+04   1.6126648e+04   1.6136637e+04   1.6147283e+04   1.6156973e+04   1.6166485e+04   1.6176262e+04   1.6186260e+04   1.6197137e+04   1.6207433e+04   1.6215554e+04   1.6222749e+04   1.6227761e+04   1.6231674e+04
1.4785788e+04   1.4771739e+04   1.4761014e+04   1.4759130e+04   1.4759753e+04   1.4765349e+04   1.4773474e+04   1.4787768e+04   1.4804372e+04   1.4823630e+04   1.4843891e+04   1.4864646e+04   1.4885496e+04   1.4905687e+04   1.4925362e+04   1.4944080e+04   1.4963081e+04   1.4982621e+04   1.5002497e+04   1.5022508e+04   1.5042515e+04   1.5061514e+04   1.5076744e+04   1.5087428e+04   1.5097232e+04   1.5107942e+04   1.5120162e+04   1.5133751e+04   1.5148124e+04   1.5162758e+04   1.5177284e+04   1.5191259e+04   1.5204584e+04   1.5216836e+04   1.5228261e+04   1.5238876e+04   1.5249220e+04   1.5259391e+04   1.5269750e+04   1.5280244e+04   1.5291072e+04   1.5302098e+04   1.5313401e+04   1.5324629e+04   1.5335793e+04   1.5346169e+04   1.5355910e+04   1.5364653e+04   1.5372748e+04   1.5380091e+04   1.5387006e+04   1.5393466e+04   1.5399722e+04   1.5405661e+04   1.5411530e+04   1.5417439e+04   1.5423571e+04   1.5429907e+04   1.5436549e+04   1.5443367e+04   1.5450465e+04   1.5458166e+04   1.5466418e+04   1.5475250e+04   1.5484016e+04   1.5491841e+04   1.5499667e+04   1.5507870e+04   1.5516074e+04   1.5524244e+04   1.5532415e+04   1.5539510e+04   1.5546603e+04   1.5550806e+04   1.5552907e+04   1.5555010e+04   1.5557138e+04   1.5559290e+04   1.5561565e+04   1.5563976e+04   1.5566500e+04   1.5569070e+04   1.5571719e+04   1.5574438e+04   1.5577208e+04   1.5580009e+04   1.5582842e+04   1.5585698e+04   1.5588569e+04   1.5591434e+04   1.5594297e+04   1.5597985e+04   1.5602087e+04   1.5606591e+04   1.5611264e+04   1.5616245e+04   1.5621246e+04   1.5626238e+04   1.5631108e+04   1.5635684e+04   1.5639967e+04   1.5643969e+04   1.5647729e+04   1.5652686e+04   1.5658299e+04   1.5664661e+04   1.5671428e+04   1.5678855e+04   1.5686628e+04   1.5694943e+04   1.5703525e+04   1.5712441e+04   1.5721502e+04   1.5730796e+04   1.5740164e+04   1.5749638e+04   1.5759106e+04   1.5769322e+04   1.5779979e+04   1.5791506e+04   1.5803574e+04   1.5823731e+04   1.5846071e+04   1.5870048e+04   1.5893601e+04   1.5916189e+04   1.5937450e+04   1.5975877e+04   1.6013622e+04   1.6052423e+04   1.6089880e+04   1.6123717e+04   1.6155657e+04   1.6187940e+04   1.6218585e+04   1.6246593e+04   1.6270681e+04   1.6293880e+04   1.6313545e+04   1.6331154e+04   1.6346486e+04   1.6361802e+04   1.6375671e+04   1.6388779e+04   1.6400646e+04   1.6412564e+04   1.6423511e+04   1.6433825e+04   1.6443929e+04   1.6454657e+04   1.6464666e+04   1.6474530e+04   1.6484802e+04   1.6495359e+04   1.6506865e+04   1.6517842e+04   1.6526672e+04   1.6534555e+04   1.6540410e+04   1.6545067e+04
1.5024684e+04   1.5010628e+04   1.4999947e+04   1.4998901e+04   1.5000477e+04   1.5007320e+04   1.5016786e+04   1.5032766e+04   1.5051107e+04   1.5072089e+04   1.5094034e+04   1.5116413e+04   1.5138863e+04   1.5160594e+04   1.5181769e+04   1.5201911e+04   1.5222377e+04   1.5243445e+04   1.5264877e+04   1.5286469e+04   1.5308106e+04   1.5328894e+04   1.5346027e+04   1.5358384e+04   1.5369577e+04   1.5381432e+04   1.5394690e+04   1.5409385e+04   1.5424922e+04   1.5440820e+04   1.5456694e+04   1.5472142e+04   1.5487057e+04   1.5501104e+04   1.5514403e+04   1.5526942e+04   1.5539023e+04   1.5550690e+04   1.5562206e+04   1.5573534e+04   1.5584859e+04   1.5596065e+04   1.5607308e+04   1.5618307e+04   1.5629239e+04   1.5639645e+04   1.5649749e+04   1.5659329e+04   1.5668566e+04   1.5677295e+04   1.5685674e+04   1.5693603e+04   1.5701259e+04   1.5708562e+04   1.5715722e+04   1.5722773e+04   1.5729892e+04   1.5737013e+04   1.5744298e+04   1.5751622e+04   1.5759145e+04   1.5767151e+04   1.5775638e+04   1.5784641e+04   1.5793715e+04   1.5801953e+04   1.5810192e+04   1.5818930e+04   1.5827668e+04   1.5836668e+04   1.5845666e+04   1.5853114e+04   1.5860561e+04   1.5864999e+04   1.5867217e+04   1.5869436e+04   1.5871663e+04   1.5873910e+04   1.5876276e+04   1.5878773e+04   1.5881382e+04   1.5884034e+04   1.5886761e+04   1.5889556e+04   1.5892400e+04   1.5895274e+04   1.5898175e+04   1.5901099e+04   1.5904036e+04   1.5906966e+04   1.5909892e+04   1.5913644e+04   1.5917814e+04   1.5922389e+04   1.5927132e+04   1.5932188e+04   1.5937263e+04   1.5942334e+04   1.5947281e+04   1.5951935e+04   1.5956295e+04   1.5960372e+04   1.5964207e+04   1.5969235e+04   1.5974912e+04   1.5981332e+04   1.5988150e+04   1.5995621e+04   1.6003427e+04   1.6011764e+04   1.6020359e+04   1.6029276e+04   1.6038324e+04   1.6047595e+04   1.6056929e+04   1.6066357e+04   1.6075770e+04   1.6085916e+04   1.6096490e+04   1.6107919e+04   1.6119874e+04   1.6139891e+04   1.6162038e+04   1.6185748e+04   1.6208938e+04   1.6231082e+04   1.6251958e+04   1.6289457e+04   1.6326263e+04   1.6363919e+04   1.6400364e+04   1.6434538e+04   1.6466335e+04   1.6497729e+04   1.6527233e+04   1.6554658e+04   1.6578334e+04   1.6600892e+04   1.6620122e+04   1.6637745e+04   1.6653103e+04   1.6668245e+04   1.6682017e+04   1.6695216e+04   1.6707252e+04   1.6719245e+04   1.6730325e+04   1.6740895e+04   1.6750948e+04   1.6761466e+04   1.6771692e+04   1.6781884e+04   1.6792634e+04   1.6803703e+04   1.6815769e+04   1.6827397e+04   1.6836940e+04   1.6845611e+04   1.6852516e+04   1.6858172e+04
1.5263301e+04   1.5248924e+04   1.5238029e+04   1.5237648e+04   1.5240084e+04   1.5248131e+04   1.5258933e+04   1.5276591e+04   1.5296679e+04   1.5319402e+04   1.5343066e+04   1.5367103e+04   1.5391192e+04   1.5414505e+04   1.5437223e+04   1.5458827e+04   1.5480792e+04   1.5503424e+04   1.5526455e+04   1.5549664e+04   1.5572958e+04   1.5595448e+04   1.5614277e+04   1.5628140e+04   1.5640622e+04   1.5653549e+04   1.5667782e+04   1.5683503e+04   1.5700156e+04   1.5717315e+04   1.5734550e+04   1.5751496e+04   1.5768001e+04   1.5783761e+04   1.5798799e+04   1.5813011e+04   1.5826574e+04   1.5839474e+04   1.5851923e+04   1.5863910e+04   1.5875672e+04   1.5887136e+04   1.5898554e+04   1.5909759e+04   1.5920987e+04   1.5931969e+04   1.5942872e+04   1.5953500e+04   1.5963957e+04   1.5974005e+04   1.5983754e+04   1.5993029e+04   1.6001996e+04   1.6010550e+04   1.6018897e+04   1.6027003e+04   1.6035062e+04   1.6042989e+04   1.6050970e+04   1.6058891e+04   1.6066933e+04   1.6075401e+04   1.6084416e+04   1.6094030e+04   1.6103413e+04   1.6112066e+04   1.6120718e+04   1.6129991e+04   1.6139263e+04   1.6149091e+04   1.6158919e+04   1.6166719e+04   1.6174520e+04   1.6179191e+04   1.6181527e+04   1.6183864e+04   1.6186179e+04   1.6188515e+04   1.6190970e+04   1.6193554e+04   1.6196247e+04   1.6198981e+04   1.6201788e+04   1.6204659e+04   1.6207578e+04   1.6210523e+04   1.6213495e+04   1.6216486e+04   1.6219490e+04   1.6222483e+04   1.6225472e+04   1.6229289e+04   1.6233522e+04   1.6238162e+04   1.6242973e+04   1.6248097e+04   1.6253243e+04   1.6258385e+04   1.6263404e+04   1.6268130e+04   1.6272564e+04   1.6276717e+04   1.6280628e+04   1.6285729e+04   1.6291476e+04   1.6297957e+04   1.6304828e+04   1.6312341e+04   1.6320178e+04   1.6328535e+04   1.6337139e+04   1.6346052e+04   1.6355085e+04   1.6364329e+04   1.6373624e+04   1.6383000e+04   1.6392352e+04   1.6402423e+04   1.6412910e+04   1.6424234e+04   1.6436068e+04   1.6455910e+04   1.6477828e+04   1.6501248e+04   1.6524089e+04   1.6545864e+04   1.6566342e+04   1.6603076e+04   1.6638852e+04   1.6675335e+04   1.6710863e+04   1.6744895e+04   1.6776549e+04   1.6807352e+04   1.6835947e+04   1.6862768e+04   1.6885915e+04   1.6907825e+04   1.6926519e+04   1.6943910e+04   1.6959166e+04   1.6974104e+04   1.6987765e+04   1.7001005e+04   1.7013173e+04   1.7025252e+04   1.7036429e+04   1.7047192e+04   1.7057452e+04   1.7068052e+04   1.7078450e+04   1.7088939e+04   1.7100167e+04   1.7111754e+04   1.7124368e+04   1.7136601e+04   1.7146833e+04   1.7156289e+04   1.7164309e+04   1.7171077e+04
1.5501157e+04   1.5485886e+04   1.5474156e+04   1.5474146e+04   1.5477229e+04   1.5486383e+04   1.5498448e+04   1.5517759e+04   1.5539571e+04   1.5564041e+04   1.5589444e+04   1.5615179e+04   1.5640944e+04   1.5665874e+04   1.5690174e+04   1.5713296e+04   1.5736811e+04   1.5761054e+04   1.5785737e+04   1.5810640e+04   1.5835644e+04   1.5859935e+04   1.5880561e+04   1.5896174e+04   1.5910224e+04   1.5924467e+04   1.5939897e+04   1.5956821e+04   1.5974785e+04   1.5993335e+04   1.6012074e+04   1.6030586e+04   1.6048726e+04   1.6066153e+04   1.6082865e+04   1.6098635e+04   1.6113590e+04   1.6127601e+04   1.6140887e+04   1.6153375e+04   1.6165395e+04   1.6176957e+04   1.6188464e+04   1.6199871e+04   1.6211481e+04   1.6223106e+04   1.6234864e+04   1.6246532e+04   1.6258144e+04   1.6269432e+04   1.6280501e+04   1.6291098e+04   1.6301385e+04   1.6311195e+04   1.6320741e+04   1.6329925e+04   1.6338964e+04   1.6347750e+04   1.6356499e+04   1.6365087e+04   1.6373724e+04   1.6382804e+04   1.6392307e+04   1.6402268e+04   1.6412461e+04   1.6421631e+04   1.6430801e+04   1.6440645e+04   1.6450488e+04   1.6460997e+04   1.6471505e+04   1.6479691e+04   1.6487879e+04   1.6492846e+04   1.6495331e+04   1.6497815e+04   1.6500263e+04   1.6502723e+04   1.6505295e+04   1.6507992e+04   1.6510793e+04   1.6513629e+04   1.6516532e+04   1.6519496e+04   1.6522505e+04   1.6525536e+04   1.6528588e+04   1.6531659e+04   1.6534739e+04   1.6537805e+04   1.6540865e+04   1.6544753e+04   1.6549058e+04   1.6553767e+04   1.6558647e+04   1.6563840e+04   1.6569054e+04   1.6574263e+04   1.6579349e+04   1.6584148e+04   1.6588661e+04   1.6592901e+04   1.6596906e+04   1.6602100e+04   1.6607931e+04   1.6614486e+04   1.6621420e+04   1.6628975e+04   1.6636837e+04   1.6645198e+04   1.6653784e+04   1.6662662e+04   1.6671645e+04   1.6680826e+04   1.6690049e+04   1.6699347e+04   1.6708613e+04   1.6718587e+04   1.6728963e+04   1.6740158e+04   1.6751846e+04   1.6771480e+04   1.6793144e+04   1.6816220e+04   1.6838715e+04   1.6860283e+04   1.6880825e+04   1.6916665e+04   1.6951206e+04   1.6986352e+04   1.7020815e+04   1.7054450e+04   1.7085838e+04   1.7116213e+04   1.7144127e+04   1.7170412e+04   1.7193013e+04   1.7214286e+04   1.7232409e+04   1.7249441e+04   1.7264498e+04   1.7279241e+04   1.7292820e+04   1.7306108e+04   1.7318405e+04   1.7330599e+04   1.7341889e+04   1.7352929e+04   1.7363611e+04   1.7374534e+04   1.7385192e+04   1.7395961e+04   1.7407664e+04   1.7419779e+04   1.7432953e+04   1.7445790e+04   1.7456707e+04   1.7466924e+04   1.7476056e+04   1.7483945e+04
1.5738320e+04   1.5721686e+04   1.5708644e+04   1.5708769e+04   1.5712296e+04   1.5722435e+04   1.5735652e+04   1.5756530e+04   1.5779982e+04   1.5806147e+04   1.5833242e+04   1.5860658e+04   1.5888078e+04   1.5914615e+04   1.5940486e+04   1.5965118e+04   1.5990151e+04   1.6015992e+04   1.6042314e+04   1.6068917e+04   1.6095627e+04   1.6121823e+04   1.6144583e+04   1.6162381e+04   1.6178411e+04   1.6194384e+04   1.6211486e+04   1.6230176e+04   1.6249974e+04   1.6270409e+04   1.6291021e+04   1.6311409e+04   1.6331422e+04   1.6350756e+04   1.6369425e+04   1.6387130e+04   1.6403913e+04   1.6419533e+04   1.6434013e+04   1.6447145e+04   1.6459306e+04   1.6470691e+04   1.6481821e+04   1.6492923e+04   1.6504301e+04   1.6515981e+04   1.6528014e+04   1.6540151e+04   1.6552436e+04   1.6564658e+04   1.6576878e+04   1.6588775e+04   1.6600420e+04   1.6611576e+04   1.6622405e+04   1.6632755e+04   1.6642843e+04   1.6652553e+04   1.6662126e+04   1.6671433e+04   1.6680711e+04   1.6690180e+04   1.6700062e+04   1.6710504e+04   1.6721509e+04   1.6731196e+04   1.6740883e+04   1.6751298e+04   1.6761714e+04   1.6772903e+04   1.6784092e+04   1.6792665e+04   1.6801237e+04   1.6806502e+04   1.6809134e+04   1.6811766e+04   1.6814290e+04   1.6816842e+04   1.6819510e+04   1.6822307e+04   1.6825210e+04   1.6828144e+04   1.6831145e+04   1.6834204e+04   1.6837304e+04   1.6840423e+04   1.6843561e+04   1.6846712e+04   1.6849871e+04   1.6853009e+04   1.6856133e+04   1.6860079e+04   1.6864435e+04   1.6869192e+04   1.6874116e+04   1.6879352e+04   1.6884606e+04   1.6889857e+04   1.6894985e+04   1.6899833e+04   1.6904403e+04   1.6908709e+04   1.6912791e+04   1.6918052e+04   1.6923940e+04   1.6930535e+04   1.6937493e+04   1.6945050e+04   1.6952895e+04   1.6961219e+04   1.6969755e+04   1.6978571e+04   1.6987482e+04   1.6996582e+04   1.7005718e+04   1.7014921e+04   1.7024086e+04   1.7033947e+04   1.7044195e+04   1.7055249e+04   1.7066777e+04   1.7086225e+04   1.7107640e+04   1.7130372e+04   1.7152455e+04   1.7173635e+04   1.7193923e+04   1.7228786e+04   1.7262373e+04   1.7296632e+04   1.7330186e+04   1.7363221e+04   1.7394363e+04   1.7424621e+04   1.7451836e+04   1.7477328e+04   1.7499319e+04   1.7520000e+04   1.7537990e+04   1.7554986e+04   1.7570176e+04   1.7585126e+04   1.7598880e+04   1.7612378e+04   1.7624872e+04   1.7637278e+04   1.7648722e+04   1.7659860e+04   1.7669710e+04   1.7679846e+04   1.7690762e+04   1.7701826e+04   1.7713867e+04   1.7726359e+04   1.7739932e+04   1.7753296e+04   1.7765142e+04   1.7776404e+04   1.7787073e+04   1.7796479e+04
1.5974930e+04   1.5956492e+04   1.5941777e+04   1.5941892e+04   1.5945803e+04   1.5956847e+04   1.5971179e+04   1.5993570e+04   1.6018632e+04   1.6046428e+04   1.6075206e+04   1.6104288e+04   1.6133360e+04   1.6161478e+04   1.6188920e+04   1.6215045e+04   1.6241577e+04   1.6268926e+04   1.6296884e+04   1.6325176e+04   1.6353606e+04   1.6381724e+04   1.6406971e+04   1.6427861e+04   1.6446492e+04   1.6464476e+04   1.6483672e+04   1.6504494e+04   1.6526486e+04   1.6549106e+04   1.6571770e+04   1.6594204e+04   1.6616135e+04   1.6637531e+04   1.6658339e+04   1.6678365e+04   1.6697498e+04   1.6715311e+04   1.6731385e+04   1.6745484e+04   1.6757973e+04   1.6769210e+04   1.6779802e+04   1.6790232e+04   1.6800797e+04   1.6811874e+04   1.6823400e+04   1.6835341e+04   1.6847753e+04   1.6860592e+04   1.6873759e+04   1.6886877e+04   1.6899840e+04   1.6912347e+04   1.6924471e+04   1.6936010e+04   1.6947158e+04   1.6957818e+04   1.6968241e+04   1.6978304e+04   1.6988268e+04   1.6997851e+04   1.7008015e+04   1.7018791e+04   1.7029411e+04   1.7039596e+04   1.7049780e+04   1.7060662e+04   1.7071545e+04   1.7082857e+04   1.7094169e+04   1.7103161e+04   1.7112154e+04   1.7117669e+04   1.7120428e+04   1.7123186e+04   1.7125865e+04   1.7128550e+04   1.7131340e+04   1.7134248e+04   1.7137256e+04   1.7140291e+04   1.7143387e+04   1.7146540e+04   1.7149733e+04   1.7152942e+04   1.7156168e+04   1.7159406e+04   1.7162650e+04   1.7165877e+04   1.7169094e+04   1.7173151e+04   1.7177628e+04   1.7182514e+04   1.7187572e+04   1.7192945e+04   1.7198337e+04   1.7203724e+04   1.7208985e+04   1.7213952e+04   1.7218628e+04   1.7223029e+04   1.7227191e+04   1.7232537e+04   1.7238504e+04   1.7245172e+04   1.7252191e+04   1.7259809e+04   1.7267705e+04   1.7276068e+04   1.7284627e+04   1.7293448e+04   1.7302347e+04   1.7311414e+04   1.7320498e+04   1.7329630e+04   1.7338708e+04   1.7348465e+04   1.7358595e+04   1.7369511e+04   1.7380888e+04   1.7400154e+04   1.7421332e+04   1.7443741e+04   1.7465382e+04   1.7485933e+04   1.7505429e+04   1.7539639e+04   1.7572664e+04   1.7606335e+04   1.7639156e+04   1.7671628e+04   1.7702564e+04   1.7732664e+04   1.7759070e+04   1.7783695e+04   1.7805055e+04   1.7825415e+04   1.7843730e+04   1.7861143e+04   1.7876928e+04   1.7892398e+04   1.7906563e+04   1.7920374e+04   1.7933140e+04   1.7945779e+04   1.7957389e+04   1.7968278e+04   1.7976575e+04   1.7985027e+04   1.7995613e+04   1.8006871e+04   1.8019212e+04   1.8032016e+04   1.8045909e+04   1.8059817e+04   1.8072712e+04   1.8085220e+04   1.8097688e+04   1.8108854e+04
1.6211576e+04   1.6191394e+04   1.6174657e+04   1.6174759e+04   1.6179015e+04   1.6191107e+04   1.6206470e+04   1.6230493e+04   1.6257139e+04   1.6286734e+04   1.6317126e+04   1.6347969e+04   1.6378647e+04   1.6408432e+04   1.6437402e+04   1.6465122e+04   1.6493091e+04   1.6522125e+04   1.6551627e+04   1.6581670e+04   1.6611687e+04   1.6641696e+04   1.6669523e+04   1.6693548e+04   1.6714403e+04   1.6734276e+04   1.6755584e+04   1.6778483e+04   1.6802435e+04   1.6826921e+04   1.6851418e+04   1.6875599e+04   1.6899272e+04   1.6922513e+04   1.6945470e+04   1.6967991e+04   1.6989833e+04   1.7009983e+04   1.7028048e+04   1.7043592e+04   1.7057058e+04   1.7068706e+04   1.7079206e+04   1.7089020e+04   1.7098560e+04   1.7108388e+04   1.7118769e+04   1.7130047e+04   1.7142327e+04   1.7155605e+04   1.7169608e+04   1.7183826e+04   1.7198036e+04   1.7211824e+04   1.7225208e+04   1.7237893e+04   1.7250102e+04   1.7261701e+04   1.7272988e+04   1.7283829e+04   1.7294530e+04   1.7304706e+04   1.7315537e+04   1.7327078e+04   1.7337314e+04   1.7347995e+04   1.7358676e+04   1.7370026e+04   1.7381376e+04   1.7392811e+04   1.7404245e+04   1.7413658e+04   1.7423069e+04   1.7428837e+04   1.7431722e+04   1.7434606e+04   1.7437393e+04   1.7440185e+04   1.7443080e+04   1.7446092e+04   1.7449201e+04   1.7452335e+04   1.7455528e+04   1.7458775e+04   1.7462061e+04   1.7465361e+04   1.7468677e+04   1.7472001e+04   1.7475331e+04   1.7478643e+04   1.7481942e+04   1.7486085e+04   1.7490651e+04   1.7495632e+04   1.7500790e+04   1.7506269e+04   1.7511770e+04   1.7517268e+04   1.7522641e+04   1.7527715e+04   1.7532492e+04   1.7536984e+04   1.7541229e+04   1.7546649e+04   1.7552681e+04   1.7559407e+04   1.7566475e+04   1.7574127e+04   1.7582047e+04   1.7590427e+04   1.7598992e+04   1.7607806e+04   1.7616683e+04   1.7625712e+04   1.7634738e+04   1.7643794e+04   1.7652778e+04   1.7662421e+04   1.7672422e+04   1.7683190e+04   1.7694400e+04   1.7713434e+04   1.7734324e+04   1.7756375e+04   1.7777584e+04   1.7797602e+04   1.7816346e+04   1.7849891e+04   1.7881981e+04   1.7914590e+04   1.7946551e+04   1.7978609e+04   1.8009668e+04   1.8039522e+04   1.8064791e+04   1.8087726e+04   1.8108181e+04   1.8128182e+04   1.8146361e+04   1.8164133e+04   1.8180488e+04   1.8196536e+04   1.8211082e+04   1.8225305e+04   1.8238427e+04   1.8251371e+04   1.8263095e+04   1.8275027e+04   1.8284571e+04   1.8292654e+04   1.8302283e+04   1.8313201e+04   1.8325603e+04   1.8338632e+04   1.8352778e+04   1.8367100e+04   1.8380996e+04   1.8394655e+04   1.8408488e+04   1.8421149e+04
1.6443137e+04   1.6421887e+04   1.6404713e+04   1.6404143e+04   1.6409513e+04   1.6422559e+04   1.6439443e+04   1.6464312e+04   1.6493292e+04   1.6524683e+04   1.6556914e+04   1.6589082e+04   1.6621733e+04   1.6653168e+04   1.6683526e+04   1.6711812e+04   1.6742373e+04   1.6773408e+04   1.6804845e+04   1.6836106e+04   1.6869031e+04   1.6902647e+04   1.6935643e+04   1.6963965e+04   1.6988586e+04   1.7011739e+04   1.7035022e+04   1.7059637e+04   1.7085174e+04   1.7111004e+04   1.7136732e+04   1.7162061e+04   1.7186989e+04   1.7211617e+04   1.7236426e+04   1.7261129e+04   1.7285189e+04   1.7307195e+04   1.7327009e+04   1.7343884e+04   1.7358353e+04   1.7370369e+04   1.7380657e+04   1.7389467e+04   1.7397410e+04   1.7405370e+04   1.7414112e+04   1.7424386e+04   1.7436309e+04   1.7449814e+04   1.7464440e+04   1.7479582e+04   1.7494883e+04   1.7509847e+04   1.7524403e+04   1.7538198e+04   1.7551478e+04   1.7564044e+04   1.7576258e+04   1.7587936e+04   1.7599440e+04   1.7610556e+04   1.7621972e+04   1.7633433e+04   1.7644335e+04   1.7655629e+04   1.7666924e+04   1.7678833e+04   1.7690742e+04   1.7702321e+04   1.7713901e+04   1.7723806e+04   1.7733711e+04   1.7739811e+04   1.7742862e+04   1.7745912e+04   1.7748829e+04   1.7751748e+04   1.7754764e+04   1.7757891e+04   1.7761111e+04   1.7764351e+04   1.7767645e+04   1.7770989e+04   1.7774368e+04   1.7777758e+04   1.7781160e+04   1.7784568e+04   1.7787979e+04   1.7791368e+04   1.7794744e+04   1.7798964e+04   1.7803608e+04   1.7808667e+04   1.7813905e+04   1.7819465e+04   1.7825048e+04   1.7830630e+04   1.7836087e+04   1.7841250e+04   1.7846121e+04   1.7850708e+04   1.7855054e+04   1.7860568e+04   1.7866683e+04   1.7873475e+04   1.7880593e+04   1.7888271e+04   1.7896193e+04   1.7904546e+04   1.7913059e+04   1.7921797e+04   1.7930579e+04   1.7939500e+04   1.7948408e+04   1.7957335e+04   1.7966181e+04   1.7975672e+04   1.7985500e+04   1.7996077e+04   1.8007074e+04   1.8025838e+04   1.8046418e+04   1.8068041e+04   1.8088797e+04   1.8108633e+04   1.8127313e+04   1.8159882e+04   1.8190608e+04   1.8221880e+04   1.8252814e+04   1.8284728e+04   1.8316325e+04   1.8345936e+04   1.8369531e+04   1.8389899e+04   1.8409001e+04   1.8428130e+04   1.8445579e+04   1.8463391e+04   1.8479974e+04   1.8496518e+04   1.8511335e+04   1.8526018e+04   1.8539515e+04   1.8552814e+04   1.8564656e+04   1.8578800e+04   1.8591465e+04   1.8601225e+04   1.8611111e+04   1.8621562e+04   1.8633806e+04   1.8646966e+04   1.8661311e+04   1.8675982e+04   1.8690855e+04   1.8705567e+04   1.8720553e+04   1.8734152e+04
1.6677137e+04   1.6653896e+04   1.6637399e+04   1.6635992e+04   1.6642480e+04   1.6656186e+04   1.6674437e+04   1.6699761e+04   1.6730850e+04   1.6763821e+04   1.6797657e+04   1.6830945e+04   1.6865358e+04   1.6898190e+04   1.6929295e+04   1.6958165e+04   1.6990984e+04   1.7023865e+04   1.7056839e+04   1.7089651e+04   1.7126511e+04   1.7165374e+04   1.7206455e+04   1.7244618e+04   1.7277627e+04   1.7305266e+04   1.7328968e+04   1.7354148e+04   1.7380516e+04   1.7407046e+04   1.7433379e+04   1.7459298e+04   1.7485032e+04   1.7510808e+04   1.7537156e+04   1.7563357e+04   1.7588824e+04   1.7612073e+04   1.7633089e+04   1.7650879e+04   1.7666032e+04   1.7678059e+04   1.7687791e+04   1.7695102e+04   1.7700932e+04   1.7706912e+04   1.7713954e+04   1.7723204e+04   1.7734594e+04   1.7748032e+04   1.7762872e+04   1.7778507e+04   1.7794502e+04   1.7810252e+04   1.7825703e+04   1.7840434e+04   1.7854719e+04   1.7868287e+04   1.7881517e+04   1.7894149e+04   1.7906566e+04   1.7918526e+04   1.7929838e+04   1.7939787e+04   1.7951355e+04   1.7963263e+04   1.7975172e+04   1.7987640e+04   1.8000107e+04   1.8011832e+04   1.8023557e+04   1.8033955e+04   1.8044352e+04   1.8050785e+04   1.8054002e+04   1.8057218e+04   1.8060216e+04   1.8063226e+04   1.8066340e+04   1.8069570e+04   1.8072896e+04   1.8076239e+04   1.8079633e+04   1.8083075e+04   1.8086551e+04   1.8090034e+04   1.8093524e+04   1.8097018e+04   1.8100512e+04   1.8103978e+04   1.8107420e+04   1.8111710e+04   1.8116415e+04   1.8121528e+04   1.8126812e+04   1.8132413e+04   1.8138031e+04   1.8143644e+04   1.8149132e+04   1.8154341e+04   1.8159276e+04   1.8163953e+04   1.8168406e+04   1.8174020e+04   1.8180213e+04   1.8187052e+04   1.8194189e+04   1.8201845e+04   1.8209705e+04   1.8217961e+04   1.8226348e+04   1.8234939e+04   1.8243559e+04   1.8252306e+04   1.8261034e+04   1.8269780e+04   1.8278446e+04   1.8287753e+04   1.8297392e+04   1.8307764e+04   1.8318542e+04   1.8337105e+04   1.8357342e+04   1.8378462e+04   1.8398871e+04   1.8418315e+04   1.8436071e+04   1.8467462e+04   1.8497180e+04   1.8526960e+04   1.8556542e+04   1.8589027e+04   1.8621206e+04   1.8650337e+04   1.8679782e+04   1.8707519e+04   1.8730620e+04   1.8753322e+04   1.8772108e+04   1.8791215e+04   1.8808327e+04   1.8825491e+04   1.8840909e+04   1.8856333e+04   1.8870527e+04   1.8884529e+04   1.8896933e+04   1.8910574e+04   1.8909788e+04   1.8906438e+04   1.8916731e+04   1.8927626e+04   1.8939898e+04   1.8953123e+04   1.8967532e+04   1.8982375e+04   1.8997983e+04   1.9015037e+04   1.9032759e+04   1.9047007e+04
1.6927880e+04   1.6900354e+04   1.6883858e+04   1.6881899e+04   1.6889030e+04   1.6903301e+04   1.6922498e+04   1.6948490e+04   1.6980825e+04   1.7015310e+04   1.7050254e+04   1.7084876e+04   1.7120422e+04   1.7154537e+04   1.7185908e+04   1.7216126e+04   1.7249918e+04   1.7284323e+04   1.7318019e+04   1.7352746e+04   1.7390966e+04   1.7433186e+04   1.7483084e+04   1.7536009e+04   1.7581852e+04   1.7614404e+04   1.7640704e+04   1.7666947e+04   1.7693618e+04   1.7720190e+04   1.7746371e+04   1.7772242e+04   1.7798115e+04   1.7824490e+04   1.7851544e+04   1.7878195e+04   1.7904035e+04   1.7927715e+04   1.7949092e+04   1.7967228e+04   1.7982533e+04   1.7994281e+04   1.8003280e+04   1.8009072e+04   1.8012923e+04   1.8017155e+04   1.8022584e+04   1.8030658e+04   1.8041135e+04   1.8053939e+04   1.8068320e+04   1.8083835e+04   1.8099917e+04   1.8116016e+04   1.8132072e+04   1.8147617e+04   1.8162902e+04   1.8177562e+04   1.8191936e+04   1.8205665e+04   1.8219116e+04   1.8231978e+04   1.8244767e+04   1.8256577e+04   1.8268695e+04   1.8280400e+04   1.8292105e+04   1.8302644e+04   1.8313183e+04   1.8320903e+04   1.8328624e+04   1.8339550e+04   1.8350477e+04   1.8357341e+04   1.8360774e+04   1.8364206e+04   1.8367502e+04   1.8370764e+04   1.8374098e+04   1.8377526e+04   1.8381037e+04   1.8384548e+04   1.8388102e+04   1.8391699e+04   1.8395327e+04   1.8398953e+04   1.8402582e+04   1.8406210e+04   1.8409836e+04   1.8413435e+04   1.8417016e+04   1.8421465e+04   1.8426342e+04   1.8431633e+04   1.8437091e+04   1.8442864e+04   1.8448646e+04   1.8454411e+04   1.8460040e+04   1.8465390e+04   1.8470464e+04   1.8475283e+04   1.8479883e+04   1.8485653e+04   1.8491989e+04   1.8498955e+04   1.8506186e+04   1.8513913e+04   1.8521819e+04   1.8530086e+04   1.8538435e+04   1.8546921e+04   1.8555382e+04   1.8563929e+04   1.8572441e+04   1.8580976e+04   1.8589445e+04   1.8598585e+04   1.8608075e+04   1.8618309e+04   1.8628927e+04   1.8647527e+04   1.8667868e+04   1.8689079e+04   1.8709074e+04   1.8728275e+04   1.8742111e+04   1.8772768e+04   1.8801395e+04   1.8828474e+04   1.8855661e+04   1.8888131e+04   1.8920008e+04   1.8951289e+04   1.8992744e+04   1.9033960e+04   1.9065310e+04   1.9093389e+04   1.9114492e+04   1.9134637e+04   1.9152095e+04   1.9169473e+04   1.9185424e+04   1.9201470e+04   1.9216422e+04   1.9231162e+04   1.9244289e+04   1.9251954e+04   1.9229390e+04   1.9206253e+04   1.9215082e+04   1.9227069e+04   1.9239732e+04   1.9253046e+04   1.9267472e+04   1.9282418e+04   1.9298682e+04   1.9318886e+04   1.9339890e+04   1.9355895e+04
1.7205611e+04   1.7172941e+04   1.7154386e+04   1.7151801e+04   1.7159500e+04   1.7174506e+04   1.7194773e+04   1.7221710e+04   1.7254912e+04   1.7290677e+04   1.7326759e+04   1.7362768e+04   1.7399291e+04   1.7434424e+04   1.7466561e+04   1.7498356e+04   1.7532764e+04   1.7567969e+04   1.7602464e+04   1.7637938e+04   1.7673947e+04   1.7716425e+04   1.7773334e+04   1.7838950e+04   1.7898031e+04   1.7940085e+04   1.7971581e+04   1.8000607e+04   1.8028381e+04   1.8055035e+04   1.8080848e+04   1.8106254e+04   1.8131762e+04   1.8157801e+04   1.8184430e+04   1.8210438e+04   1.8235643e+04   1.8258660e+04   1.8279527e+04   1.8297109e+04   1.8311953e+04   1.8323079e+04   1.8331526e+04   1.8336619e+04   1.8339728e+04   1.8343164e+04   1.8347744e+04   1.8355053e+04   1.8364738e+04   1.8376822e+04   1.8390589e+04   1.8405624e+04   1.8421422e+04   1.8437554e+04   1.8453913e+04   1.8470059e+04   1.8486132e+04   1.8501697e+04   1.8517018e+04   1.8531627e+04   1.8545876e+04   1.8559371e+04   1.8569355e+04   1.8573368e+04   1.8586034e+04   1.8597537e+04   1.8609038e+04   1.8617648e+04   1.8626257e+04   1.8629974e+04   1.8633691e+04   1.8645147e+04   1.8656602e+04   1.8663898e+04   1.8667545e+04   1.8671194e+04   1.8674877e+04   1.8678443e+04   1.8682025e+04   1.8685663e+04   1.8689358e+04   1.8693037e+04   1.8696747e+04   1.8700493e+04   1.8704263e+04   1.8708029e+04   1.8711792e+04   1.8715551e+04   1.8719305e+04   1.8723040e+04   1.8726768e+04   1.8731389e+04   1.8736469e+04   1.8742003e+04   1.8747739e+04   1.8753827e+04   1.8759962e+04   1.8766109e+04   1.8772144e+04   1.8777812e+04   1.8783122e+04   1.8788050e+04   1.8792640e+04   1.8798324e+04   1.8804501e+04   1.8811271e+04   1.8818279e+04   1.8825869e+04   1.8833700e+04   1.8841884e+04   1.8850179e+04   1.8858627e+04   1.8867093e+04   1.8875694e+04   1.8884291e+04   1.8892934e+04   1.8901505e+04   1.8910856e+04   1.8920597e+04   1.8931129e+04   1.8942042e+04   1.8962457e+04   1.8984718e+04   1.9007301e+04   1.9027302e+04   1.9042673e+04   1.9049758e+04   1.9080730e+04   1.9119733e+04   1.9159431e+04   1.9193151e+04   1.9230274e+04   1.9267203e+04   1.9309979e+04   1.9358777e+04   1.9406412e+04   1.9444546e+04   1.9476667e+04   1.9500747e+04   1.9522412e+04   1.9540815e+04   1.9558846e+04   1.9575482e+04   1.9592260e+04   1.9607964e+04   1.9623376e+04   1.9637187e+04   1.9638271e+04   1.9605265e+04   1.9575250e+04   1.9580942e+04   1.9593316e+04   1.9606285e+04   1.9619623e+04   1.9633792e+04   1.9648639e+04   1.9664914e+04   1.9684460e+04   1.9710335e+04   1.9734197e+04
1.7511054e+04   1.7475295e+04   1.7453256e+04   1.7449242e+04   1.7457443e+04   1.7473457e+04   1.7495278e+04   1.7523421e+04   1.7557519e+04   1.7594393e+04   1.7631856e+04   1.7669350e+04   1.7706997e+04   1.7743204e+04   1.7776914e+04   1.7810515e+04   1.7845787e+04   1.7881732e+04   1.7917319e+04   1.7952023e+04   1.7985589e+04   1.8028372e+04   1.8088160e+04   1.8159990e+04   1.8228136e+04   1.8279016e+04   1.8318901e+04   1.8352941e+04   1.8383125e+04   1.8410612e+04   1.8436519e+04   1.8461708e+04   1.8486902e+04   1.8512328e+04   1.8538052e+04   1.8563116e+04   1.8587190e+04   1.8609252e+04   1.8629081e+04   1.8645835e+04   1.8659745e+04   1.8670360e+04   1.8678390e+04   1.8683652e+04   1.8686940e+04   1.8690633e+04   1.8695606e+04   1.8703159e+04   1.8713010e+04   1.8725135e+04   1.8738959e+04   1.8753973e+04   1.8769918e+04   1.8786343e+04   1.8803158e+04   1.8819984e+04   1.8836779e+04   1.8853179e+04   1.8869243e+04   1.8884583e+04   1.8899392e+04   1.8913365e+04   1.8926404e+04   1.8936234e+04   1.8948680e+04   1.8958037e+04   1.8967395e+04   1.8970633e+04   1.8973870e+04   1.8967981e+04   1.8962091e+04   1.8973439e+04   1.8984788e+04   1.8989759e+04   1.8992244e+04   1.8994729e+04   1.8997342e+04   1.9000027e+04   1.9002869e+04   1.9005871e+04   1.9009012e+04   1.9012233e+04   1.9015561e+04   1.9018981e+04   1.9022470e+04   1.9026011e+04   1.9029594e+04   1.9033209e+04   1.9036844e+04   1.9040487e+04   1.9044138e+04   1.9048792e+04   1.9054035e+04   1.9059889e+04   1.9066094e+04   1.9072797e+04   1.9079666e+04   1.9086651e+04   1.9093596e+04   1.9099769e+04   1.9105173e+04   1.9109663e+04   1.9113335e+04   1.9117942e+04   1.9123048e+04   1.9128914e+04   1.9135244e+04   1.9142538e+04   1.9150465e+04   1.9159370e+04   1.9168915e+04   1.9179022e+04   1.9189353e+04   1.9199859e+04   1.9210268e+04   1.9220524e+04   1.9230475e+04   1.9241200e+04   1.9252361e+04   1.9264429e+04   1.9276963e+04   1.9301111e+04   1.9326871e+04   1.9353500e+04   1.9373069e+04   1.9375579e+04   1.9350214e+04   1.9388784e+04   1.9451407e+04   1.9515351e+04   1.9564864e+04   1.9610997e+04   1.9658304e+04   1.9711111e+04   1.9763357e+04   1.9813050e+04   1.9854882e+04   1.9889861e+04   1.9916754e+04   1.9939824e+04   1.9959346e+04   1.9977706e+04   1.9994887e+04   2.0011931e+04   2.0028117e+04   2.0043759e+04   2.0057978e+04   2.0054940e+04   2.0015304e+04   1.9981967e+04   1.9985287e+04   1.9997043e+04   2.0009953e+04   2.0023066e+04   2.0036799e+04   2.0051239e+04   2.0067189e+04   2.0085072e+04   2.0117913e+04   2.0155560e+04
1.7836424e+04   1.7803663e+04   1.7779830e+04   1.7774393e+04   1.7782390e+04   1.7799558e+04   1.7822992e+04   1.7852839e+04   1.7887752e+04   1.7925674e+04   1.7964503e+04   1.8003753e+04   1.8042771e+04   1.8080456e+04   1.8116066e+04   1.8151883e+04   1.8188353e+04   1.8225365e+04   1.8261870e+04   1.8296425e+04   1.8331185e+04   1.8376514e+04   1.8436236e+04   1.8506692e+04   1.8575703e+04   1.8632015e+04   1.8678413e+04   1.8717817e+04   1.8751957e+04   1.8782004e+04   1.8809671e+04   1.8835982e+04   1.8861944e+04   1.8887591e+04   1.8913330e+04   1.8938160e+04   1.8962275e+04   1.8984079e+04   1.9003799e+04   1.9019735e+04   1.9032756e+04   1.9041951e+04   1.9048885e+04   1.9052960e+04   1.9055709e+04   1.9059804e+04   1.9065570e+04   1.9074220e+04   1.9085141e+04   1.9098470e+04   1.9113541e+04   1.9130000e+04   1.9147411e+04   1.9165182e+04   1.9183210e+04   1.9200859e+04   1.9218288e+04   1.9234922e+04   1.9251104e+04   1.9266236e+04   1.9280820e+04   1.9294345e+04   1.9301741e+04   1.9299102e+04   1.9311325e+04   1.9318538e+04   1.9325751e+04   1.9323617e+04   1.9321483e+04   1.9305987e+04   1.9290492e+04   1.9301733e+04   1.9312974e+04   1.9315619e+04   1.9316942e+04   1.9318265e+04   1.9322143e+04   1.9325384e+04   1.9328357e+04   1.9331250e+04   1.9334151e+04   1.9337048e+04   1.9340033e+04   1.9343120e+04   1.9346300e+04   1.9349570e+04   1.9352926e+04   1.9356352e+04   1.9359830e+04   1.9363575e+04   1.9367603e+04   1.9373431e+04   1.9380374e+04   1.9388336e+04   1.9396840e+04   1.9406125e+04   1.9415659e+04   1.9425323e+04   1.9434852e+04   1.9442955e+04   1.9449618e+04   1.9454631e+04   1.9458181e+04   1.9463488e+04   1.9469839e+04   1.9477483e+04   1.9485843e+04   1.9496078e+04   1.9507586e+04   1.9520518e+04   1.9534205e+04   1.9548320e+04   1.9562350e+04   1.9576176e+04   1.9589486e+04   1.9602182e+04   1.9614164e+04   1.9627184e+04   1.9640750e+04   1.9655319e+04   1.9670321e+04   1.9699318e+04   1.9727617e+04   1.9758745e+04   1.9776339e+04   1.9768696e+04   1.9731161e+04   1.9791676e+04   1.9864792e+04   1.9933701e+04   1.9992377e+04   2.0047680e+04   2.0102194e+04   2.0157883e+04   2.0210935e+04   2.0260160e+04   2.0302891e+04   2.0338996e+04   2.0368105e+04   2.0393011e+04   2.0414263e+04   2.0434064e+04   2.0452252e+04   2.0470092e+04   2.0486810e+04   2.0502860e+04   2.0517386e+04   2.0511580e+04   2.0473116e+04   2.0444111e+04   2.0445419e+04   2.0455773e+04   2.0468087e+04   2.0480756e+04   2.0493961e+04   2.0507957e+04   2.0523200e+04   2.0541409e+04   2.0576417e+04   2.0621403e+04
