1.0600543e+04   1.0557604e+04   1.0522592e+04   1.0495636e+04   1.0474345e+04   1.0456615e+04   1.0441902e+04   1.0431000e+04   1.0424773e+04   1.0423985e+04   1.0428924e+04   1.0438183e+04   1.0448393e+04   1.0456192e+04   1.0460101e+04   1.0460305e+04   1.0457546e+04   1.0454025e+04   1.0453419e+04   1.0457401e+04   1.0464050e+04   1.0470523e+04   1.0474753e+04   1.0473664e+04   1.0462546e+04   1.0439671e+04   1.0411840e+04   1.0406661e+04   1.0422326e+04   1.0422189e+04   1.0417906e+04   1.0416862e+04   1.0420380e+04   1.0425732e+04   1.0429743e+04   1.0429217e+04   1.0424345e+04   1.0418380e+04   1.0414509e+04   1.0414482e+04   1.0417841e+04   1.0421482e+04   1.0424679e+04   1.0425580e+04   1.0424674e+04   1.0422686e+04   1.0419813e+04   1.0417716e+04   1.0403005e+04   1.0388293e+04   1.0376166e+04   1.0364039e+04   1.0355964e+04   1.0347890e+04   1.0341826e+04   1.0335761e+04   1.0331984e+04   1.0328208e+04   1.0325986e+04   1.0323764e+04   1.0324970e+04   1.0326177e+04   1.0328511e+04   1.0330845e+04   1.0331118e+04   1.0331390e+04   1.0329389e+04   1.0327387e+04   1.0325632e+04   1.0323876e+04   1.0321359e+04   1.0318842e+04   1.0313167e+04   1.0307491e+04   1.0301116e+04   1.0294741e+04   1.0290788e+04   1.0286836e+04   1.0284274e+04   1.0281712e+04   1.0279044e+04   1.0276377e+04   1.0272844e+04   1.0269311e+04   1.0266056e+04   1.0262802e+04   1.0259414e+04   1.0256026e+04   1.0253149e+04   1.0250272e+04   1.0247395e+04   1.0244518e+04   1.0243921e+04   1.0243324e+04   1.0242727e+04   1.0242130e+04   1.0234847e+04   1.0227564e+04   1.0220282e+04   1.0212999e+04   1.0213163e+04   1.0213326e+04   1.0213490e+04   1.0213653e+04   1.0213259e+04   1.0212865e+04   1.0212471e+04   1.0212077e+04   1.0212198e+04   1.0212400e+04   1.0212800e+04   1.0213409e+04   1.0214190e+04   1.0215096e+04   1.0216154e+04   1.0217343e+04   1.0218631e+04   1.0220012e+04   1.0221487e+04   1.0223039e+04   1.0224649e+04   1.0226299e+04   1.0227990e+04   1.0230610e+04   1.0233786e+04   1.0237534e+04   1.0241616e+04   1.0246541e+04   1.0251921e+04   1.0257770e+04   1.0263877e+04   1.0269951e+04   1.0275899e+04   1.0281667e+04   1.0287243e+04   1.0293748e+04   1.0300824e+04   1.0308622e+04   1.0316892e+04   1.0326046e+04   1.0335792e+04   1.0346303e+04   1.0357316e+04   1.0368858e+04   1.0380729e+04   1.0393481e+04   1.0406857e+04   1.0421213e+04   1.0436300e+04   1.0452590e+04   1.0469754e+04   1.0488026e+04   1.0507077e+04   1.0535059e+04   1.0566876e+04   1.0601488e+04   1.0636424e+04   1.0668842e+04   1.0694997e+04   1.0744569e+04   1.0793635e+04   1.0843346e+04   1.0893570e+04   1.0942205e+04   1.0987219e+04   1.1029449e+04   1.1067481e+04   1.1102251e+04   1.1131016e+04   1.1157132e+04   1.1179579e+04   1.1200148e+04   1.1216618e+04   1.1231571e+04   1.1244019e+04   1.1255449e+04   1.1264791e+04   1.1273729e+04   1.1282330e+04   1.1290909e+04   1.1299790e+04   1.1309024e+04   1.1319094e+04   1.1329221e+04   1.1339874e+04   1.1350714e+04
1.0842171e+04   1.0800791e+04   1.0766849e+04   1.0740797e+04   1.0720446e+04   1.0704050e+04   1.0691231e+04   1.0682549e+04   1.0678076e+04   1.0677939e+04   1.0682346e+04   1.0690430e+04   1.0699583e+04   1.0706679e+04   1.0709989e+04   1.0710218e+04   1.0708434e+04   1.0705424e+04   1.0702986e+04   1.0703017e+04   1.0705769e+04   1.0709855e+04   1.0712986e+04   1.0711535e+04   1.0701678e+04   1.0683691e+04   1.0663254e+04   1.0659258e+04   1.0671572e+04   1.0673286e+04   1.0671196e+04   1.0670835e+04   1.0672896e+04   1.0675411e+04   1.0675916e+04   1.0670985e+04   1.0662695e+04   1.0655210e+04   1.0651007e+04   1.0650586e+04   1.0653071e+04   1.0656121e+04   1.0659630e+04   1.0662157e+04   1.0663818e+04   1.0665373e+04   1.0667629e+04   1.0672553e+04   1.0661092e+04   1.0649630e+04   1.0641422e+04   1.0633215e+04   1.0630242e+04   1.0627270e+04   1.0625663e+04   1.0624056e+04   1.0623818e+04   1.0623580e+04   1.0623818e+04   1.0624055e+04   1.0626325e+04   1.0628594e+04   1.0630743e+04   1.0632891e+04   1.0632255e+04   1.0631620e+04   1.0629155e+04   1.0626690e+04   1.0623516e+04   1.0620341e+04   1.0616079e+04   1.0611818e+04   1.0606908e+04   1.0601998e+04   1.0598464e+04   1.0594931e+04   1.0593256e+04   1.0591582e+04   1.0590493e+04   1.0589403e+04   1.0587747e+04   1.0586092e+04   1.0587535e+04   1.0588979e+04   1.0594980e+04   1.0600982e+04   1.0596986e+04   1.0592989e+04   1.0588992e+04   1.0584994e+04   1.0580997e+04   1.0576999e+04   1.0576999e+04   1.0576999e+04   1.0576999e+04   1.0576999e+04   1.0562989e+04   1.0548977e+04   1.0534967e+04   1.0520955e+04   1.0521405e+04   1.0521854e+04   1.0522303e+04   1.0522753e+04   1.0522662e+04   1.0522572e+04   1.0522481e+04   1.0522390e+04   1.0522774e+04   1.0523211e+04   1.0523824e+04   1.0524627e+04   1.0525591e+04   1.0526666e+04   1.0527882e+04   1.0529221e+04   1.0530651e+04   1.0532165e+04   1.0533766e+04   1.0535438e+04   1.0537162e+04   1.0538923e+04   1.0540723e+04   1.0543366e+04   1.0546466e+04   1.0550014e+04   1.0553780e+04   1.0558281e+04   1.0563138e+04   1.0568381e+04   1.0573809e+04   1.0579117e+04   1.0584221e+04   1.0589070e+04   1.0593668e+04   1.0599221e+04   1.0605379e+04   1.0612293e+04   1.0619702e+04   1.0628100e+04   1.0637173e+04   1.0647064e+04   1.0657485e+04   1.0668440e+04   1.0679715e+04   1.0691868e+04   1.0704629e+04   1.0718328e+04   1.0732712e+04   1.0748240e+04   1.0764591e+04   1.0781980e+04   1.0800103e+04   1.0826957e+04   1.0857505e+04   1.0890829e+04   1.0924354e+04   1.0954737e+04   1.0978576e+04   1.1027226e+04   1.1075324e+04   1.1124662e+04   1.1174087e+04   1.1222350e+04   1.1267018e+04   1.1309285e+04   1.1347217e+04   1.1382055e+04   1.1410870e+04   1.1437316e+04   1.1459882e+04   1.1480683e+04   1.1497381e+04   1.1512774e+04   1.1525612e+04   1.1537523e+04   1.1547246e+04   1.1556613e+04   1.1565459e+04   1.1574325e+04   1.1583236e+04   1.1592416e+04   1.1602147e+04   1.1612015e+04   1.1622237e+04   1.1632512e+04
1.1082409e+04   1.1042950e+04   1.1010090e+04   1.0985695e+04   1.0966853e+04   1.0952122e+04   1.0941264e+04   1.0934762e+04   1.0932211e+04   1.0933123e+04   1.0937496e+04   1.0944754e+04   1.0953146e+04   1.0959933e+04   1.0963068e+04   1.0963816e+04   1.0963612e+04   1.0962449e+04   1.0960639e+04   1.0959103e+04   1.0958752e+04   1.0959650e+04   1.0960426e+04   1.0958253e+04   1.0950783e+04   1.0939724e+04   1.0929210e+04   1.0926130e+04   1.0933921e+04   1.0935449e+04   1.0935223e+04   1.0935706e+04   1.0936184e+04   1.0935093e+04   1.0930974e+04   1.0921978e+04   1.0912157e+04   1.0905231e+04   1.0902253e+04   1.0902262e+04   1.0904123e+04   1.0906658e+04   1.0909546e+04   1.0911977e+04   1.0913773e+04   1.0915144e+04   1.0917187e+04   1.0920878e+04   1.0916565e+04   1.0912251e+04   1.0912013e+04   1.0911774e+04   1.0913327e+04   1.0914880e+04   1.0916445e+04   1.0918011e+04   1.0919526e+04   1.0921043e+04   1.0922077e+04   1.0923113e+04   1.0923326e+04   1.0923540e+04   1.0922667e+04   1.0921794e+04   1.0919274e+04   1.0916752e+04   1.0912633e+04   1.0908515e+04   1.0903433e+04   1.0898351e+04   1.0892969e+04   1.0887588e+04   1.0883678e+04   1.0879769e+04   1.0877840e+04   1.0875911e+04   1.0874428e+04   1.0872947e+04   1.0871625e+04   1.0870304e+04   1.0868924e+04   1.0867546e+04   1.0867713e+04   1.0867880e+04   1.0868329e+04   1.0868779e+04   1.0866816e+04   1.0864853e+04   1.0863006e+04   1.0861160e+04   1.0859314e+04   1.0857467e+04   1.0857666e+04   1.0857863e+04   1.0858062e+04   1.0858261e+04   1.0851619e+04   1.0844977e+04   1.0838335e+04   1.0831694e+04   1.0832409e+04   1.0833125e+04   1.0833840e+04   1.0834556e+04   1.0834687e+04   1.0834820e+04   1.0834953e+04   1.0835085e+04   1.0835589e+04   1.0836161e+04   1.0836913e+04   1.0837857e+04   1.0838958e+04   1.0840166e+04   1.0841509e+04   1.0842969e+04   1.0844518e+04   1.0846145e+04   1.0847852e+04   1.0849624e+04   1.0851444e+04   1.0853293e+04   1.0855173e+04   1.0857887e+04   1.0861043e+04   1.0864622e+04   1.0868395e+04   1.0872853e+04   1.0877619e+04   1.0882715e+04   1.0887949e+04   1.0893027e+04   1.0897883e+04   1.0902480e+04   1.0906834e+04   1.0912105e+04   1.0917937e+04   1.0924469e+04   1.0931447e+04   1.0939265e+04   1.0947643e+04   1.0956767e+04   1.0966369e+04   1.0976490e+04   1.0986933e+04   1.0998263e+04   1.1010211e+04   1.1023109e+04   1.1036693e+04   1.1051406e+04   1.1066915e+04   1.1083435e+04   1.1100651e+04   1.1126515e+04   1.1155722e+04   1.1187558e+04   1.1219584e+04   1.1249453e+04   1.1275051e+04   1.1322098e+04   1.1368757e+04   1.1416935e+04   1.1465069e+04   1.1512325e+04   1.1556204e+04   1.1598003e+04   1.1635532e+04   1.1670175e+04   1.1698953e+04   1.1725561e+04   1.1748197e+04   1.1769177e+04   1.1786098e+04   1.1801842e+04   1.1814976e+04   1.1827272e+04   1.1837330e+04   1.1847059e+04   1.1856084e+04   1.1865144e+04   1.1874028e+04   1.1883130e+04   1.1892527e+04   1.1902090e+04   1.1911856e+04   1.1921589e+04
1.1322161e+04   1.1285565e+04   1.1255161e+04   1.1232859e+04   1.1215662e+04   1.1203019e+04   1.1193911e+04   1.1189513e+04   1.1188741e+04   1.1191026e+04   1.1195638e+04   1.1202472e+04   1.1210385e+04   1.1217162e+04   1.1220529e+04   1.1222548e+04   1.1224275e+04   1.1225320e+04   1.1225203e+04   1.1223825e+04   1.1221881e+04   1.1220213e+04   1.1218725e+04   1.1216051e+04   1.1211240e+04   1.1206254e+04   1.1203537e+04   1.1201764e+04   1.1206483e+04   1.1207636e+04   1.1208494e+04   1.1209184e+04   1.1207994e+04   1.1203672e+04   1.1195952e+04   1.1184977e+04   1.1175436e+04   1.1169702e+04   1.1167470e+04   1.1167215e+04   1.1167977e+04   1.1168847e+04   1.1169843e+04   1.1170483e+04   1.1171032e+04   1.1172077e+04   1.1174385e+04   1.1178530e+04   1.1180357e+04   1.1182185e+04   1.1187150e+04   1.1192115e+04   1.1196755e+04   1.1201394e+04   1.1205309e+04   1.1209226e+04   1.1212187e+04   1.1215147e+04   1.1216892e+04   1.1218638e+04   1.1218094e+04   1.1217549e+04   1.1215310e+04   1.1213070e+04   1.1208881e+04   1.1204693e+04   1.1198889e+04   1.1193086e+04   1.1187195e+04   1.1181304e+04   1.1175647e+04   1.1169990e+04   1.1166096e+04   1.1162201e+04   1.1160077e+04   1.1157953e+04   1.1156172e+04   1.1154390e+04   1.1153026e+04   1.1151662e+04   1.1150745e+04   1.1149827e+04   1.1147804e+04   1.1145781e+04   1.1141178e+04   1.1136574e+04   1.1136647e+04   1.1136719e+04   1.1137022e+04   1.1137326e+04   1.1137630e+04   1.1137934e+04   1.1138330e+04   1.1138727e+04   1.1139125e+04   1.1139522e+04   1.1140250e+04   1.1140977e+04   1.1141705e+04   1.1142433e+04   1.1143414e+04   1.1144396e+04   1.1145377e+04   1.1146359e+04   1.1146714e+04   1.1147069e+04   1.1147423e+04   1.1147778e+04   1.1148462e+04   1.1149202e+04   1.1150112e+04   1.1151203e+04   1.1152445e+04   1.1153786e+04   1.1155254e+04   1.1156834e+04   1.1158495e+04   1.1160230e+04   1.1162039e+04   1.1163909e+04   1.1165823e+04   1.1167763e+04   1.1169728e+04   1.1172519e+04   1.1175738e+04   1.1179369e+04   1.1183181e+04   1.1187653e+04   1.1192411e+04   1.1197471e+04   1.1202644e+04   1.1207656e+04   1.1212460e+04   1.1217028e+04   1.1221379e+04   1.1226637e+04   1.1232421e+04   1.1238848e+04   1.1245659e+04   1.1253244e+04   1.1261302e+04   1.1269985e+04   1.1279049e+04   1.1288558e+04   1.1298349e+04   1.1308997e+04   1.1320241e+04   1.1332414e+04   1.1345255e+04   1.1359215e+04   1.1373947e+04   1.1389674e+04   1.1406073e+04   1.1431122e+04   1.1459216e+04   1.1489740e+04   1.1520361e+04   1.1549692e+04   1.1576782e+04   1.1622394e+04   1.1667780e+04   1.1714812e+04   1.1761810e+04   1.1808138e+04   1.1851336e+04   1.1892667e+04   1.1929883e+04   1.1964376e+04   1.1993209e+04   1.2019970e+04   1.2042762e+04   1.2063946e+04   1.2081155e+04   1.2097225e+04   1.2110661e+04   1.2123287e+04   1.2133670e+04   1.2143702e+04   1.2152889e+04   1.2162071e+04   1.2170905e+04   1.2179886e+04   1.2188950e+04   1.2198158e+04   1.2207453e+04   1.2216645e+04
1.1563962e+04   1.1530494e+04   1.1502567e+04   1.1482300e+04   1.1466912e+04   1.1456272e+04   1.1448780e+04   1.1446145e+04   1.1446993e+04   1.1450502e+04   1.1455486e+04   1.1462167e+04   1.1469913e+04   1.1476333e+04   1.1480085e+04   1.1483599e+04   1.1487151e+04   1.1490092e+04   1.1491778e+04   1.1491692e+04   1.1490095e+04   1.1487890e+04   1.1485851e+04   1.1483845e+04   1.1481840e+04   1.1481314e+04   1.1483050e+04   1.1482785e+04   1.1485513e+04   1.1486814e+04   1.1488111e+04   1.1488346e+04   1.1485751e+04   1.1479546e+04   1.1470387e+04   1.1459503e+04   1.1450907e+04   1.1445414e+04   1.1442326e+04   1.1440517e+04   1.1439560e+04   1.1438823e+04   1.1438564e+04   1.1438598e+04   1.1439330e+04   1.1441268e+04   1.1444835e+04   1.1450312e+04   1.1454963e+04   1.1459613e+04   1.1466112e+04   1.1472611e+04   1.1479232e+04   1.1485853e+04   1.1491729e+04   1.1497604e+04   1.1501827e+04   1.1506051e+04   1.1508634e+04   1.1511218e+04   1.1511362e+04   1.1511505e+04   1.1509625e+04   1.1507745e+04   1.1503988e+04   1.1500230e+04   1.1495041e+04   1.1489851e+04   1.1484128e+04   1.1478405e+04   1.1472942e+04   1.1467479e+04   1.1463419e+04   1.1459359e+04   1.1456722e+04   1.1454085e+04   1.1452307e+04   1.1450529e+04   1.1449463e+04   1.1448395e+04   1.1448125e+04   1.1447856e+04   1.1447368e+04   1.1446879e+04   1.1445924e+04   1.1444968e+04   1.1445151e+04   1.1445333e+04   1.1445915e+04   1.1446495e+04   1.1447076e+04   1.1447657e+04   1.1448331e+04   1.1449005e+04   1.1449680e+04   1.1450354e+04   1.1451341e+04   1.1452326e+04   1.1453311e+04   1.1454297e+04   1.1455510e+04   1.1456724e+04   1.1457937e+04   1.1459150e+04   1.1459661e+04   1.1460170e+04   1.1460680e+04   1.1461191e+04   1.1461985e+04   1.1462840e+04   1.1463862e+04   1.1465064e+04   1.1466415e+04   1.1467858e+04   1.1469426e+04   1.1471101e+04   1.1472857e+04   1.1474681e+04   1.1476576e+04   1.1478528e+04   1.1480521e+04   1.1482536e+04   1.1484574e+04   1.1487430e+04   1.1490711e+04   1.1494395e+04   1.1498256e+04   1.1502767e+04   1.1507553e+04   1.1512626e+04   1.1517801e+04   1.1522809e+04   1.1527606e+04   1.1532166e+04   1.1536506e+04   1.1541730e+04   1.1547450e+04   1.1553779e+04   1.1560460e+04   1.1567873e+04   1.1575723e+04   1.1584168e+04   1.1592968e+04   1.1602180e+04   1.1611640e+04   1.1621918e+04   1.1632750e+04   1.1644467e+04   1.1656808e+04   1.1670229e+04   1.1684393e+04   1.1699525e+04   1.1715311e+04   1.1739641e+04   1.1766881e+04   1.1796466e+04   1.1825962e+04   1.1853991e+04   1.1879518e+04   1.1923730e+04   1.1967884e+04   1.2013779e+04   1.2059715e+04   1.2105183e+04   1.2147768e+04   1.2188660e+04   1.2225626e+04   1.2260031e+04   1.2288982e+04   1.2315932e+04   1.2338956e+04   1.2360417e+04   1.2377983e+04   1.2394417e+04   1.2408199e+04   1.2421173e+04   1.2431903e+04   1.2442242e+04   1.2451607e+04   1.2460908e+04   1.2469699e+04   1.2478559e+04   1.2487310e+04   1.2496154e+04   1.2504977e+04   1.2513639e+04
1.1808439e+04   1.1778348e+04   1.1753190e+04   1.1734982e+04   1.1721653e+04   1.1712812e+04   1.1707093e+04   1.1706021e+04   1.1708369e+04   1.1712899e+04   1.1718509e+04   1.1725477e+04   1.1733273e+04   1.1739352e+04   1.1743831e+04   1.1748734e+04   1.1753808e+04   1.1758245e+04   1.1761473e+04   1.1762998e+04   1.1762810e+04   1.1761618e+04   1.1760420e+04   1.1759741e+04   1.1759918e+04   1.1761668e+04   1.1765342e+04   1.1766444e+04   1.1768245e+04   1.1769920e+04   1.1771259e+04   1.1770868e+04   1.1767480e+04   1.1760843e+04   1.1752050e+04   1.1742539e+04   1.1735207e+04   1.1729830e+04   1.1725988e+04   1.1723191e+04   1.1721429e+04   1.1720418e+04   1.1720323e+04   1.1721014e+04   1.1722690e+04   1.1725617e+04   1.1729979e+04   1.1735851e+04   1.1741091e+04   1.1746330e+04   1.1752799e+04   1.1759267e+04   1.1766045e+04   1.1772822e+04   1.1779129e+04   1.1785435e+04   1.1790132e+04   1.1794828e+04   1.1797969e+04   1.1801110e+04   1.1801849e+04   1.1802588e+04   1.1801374e+04   1.1800160e+04   1.1797618e+04   1.1795075e+04   1.1791524e+04   1.1787973e+04   1.1783610e+04   1.1779246e+04   1.1774989e+04   1.1770731e+04   1.1767441e+04   1.1764149e+04   1.1761796e+04   1.1759443e+04   1.1757849e+04   1.1756257e+04   1.1755357e+04   1.1754456e+04   1.1754313e+04   1.1754170e+04   1.1754131e+04   1.1754091e+04   1.1753727e+04   1.1753362e+04   1.1753655e+04   1.1753947e+04   1.1754805e+04   1.1755664e+04   1.1756522e+04   1.1757381e+04   1.1758332e+04   1.1759284e+04   1.1760235e+04   1.1761186e+04   1.1762430e+04   1.1763675e+04   1.1764918e+04   1.1766162e+04   1.1767608e+04   1.1769052e+04   1.1770497e+04   1.1771941e+04   1.1772607e+04   1.1773273e+04   1.1773938e+04   1.1774604e+04   1.1775554e+04   1.1776548e+04   1.1777697e+04   1.1779016e+04   1.1780476e+04   1.1782025e+04   1.1783691e+04   1.1785461e+04   1.1787307e+04   1.1789219e+04   1.1791197e+04   1.1793228e+04   1.1795299e+04   1.1797392e+04   1.1799508e+04   1.1802449e+04   1.1805815e+04   1.1809586e+04   1.1813530e+04   1.1818121e+04   1.1822979e+04   1.1828116e+04   1.1833344e+04   1.1838389e+04   1.1843209e+04   1.1847776e+04   1.1852109e+04   1.1857318e+04   1.1863017e+04   1.1869314e+04   1.1875954e+04   1.1883327e+04   1.1891134e+04   1.1899522e+04   1.1908250e+04   1.1917364e+04   1.1926701e+04   1.1936817e+04   1.1947454e+04   1.1958927e+04   1.1970986e+04   1.1984082e+04   1.1997890e+04   1.2012638e+04   1.2028026e+04   1.2051742e+04   1.2078321e+04   1.2107235e+04   1.2136035e+04   1.2163246e+04   1.2187570e+04   1.2230851e+04   1.2274076e+04   1.2319152e+04   1.2364136e+04   1.2408775e+04   1.2450849e+04   1.2491385e+04   1.2528005e+04   1.2562137e+04   1.2591057e+04   1.2618026e+04   1.2641068e+04   1.2662555e+04   1.2680359e+04   1.2697039e+04   1.2711038e+04   1.2724212e+04   1.2735210e+04   1.2745783e+04   1.2755277e+04   1.2764639e+04   1.2773410e+04   1.2782184e+04   1.2790716e+04   1.2799291e+04   1.2807805e+04   1.2816107e+04
1.2055196e+04   1.2028434e+04   1.2006099e+04   1.1990096e+04   1.1978791e+04   1.1971780e+04   1.1967922e+04   1.1968429e+04   1.1972098e+04   1.1977642e+04   1.1984107e+04   1.1991714e+04   1.1999667e+04   1.2005997e+04   1.2011511e+04   1.2017714e+04   1.2024121e+04   1.2029920e+04   1.2034602e+04   1.2037758e+04   1.2039234e+04   1.2039526e+04   1.2039596e+04   1.2040150e+04   1.2041595e+04   1.2044425e+04   1.2048994e+04   1.2051296e+04   1.2052931e+04   1.2054915e+04   1.2056150e+04   1.2055362e+04   1.2051828e+04   1.2045736e+04   1.2038242e+04   1.2030653e+04   1.2024878e+04   1.2020321e+04   1.2016865e+04   1.2014476e+04   1.2013246e+04   1.2012940e+04   1.2013588e+04   1.2014996e+04   1.2017181e+04   1.2020333e+04   1.2024455e+04   1.2029444e+04   1.2034012e+04   1.2038581e+04   1.2044139e+04   1.2049698e+04   1.2055540e+04   1.2061381e+04   1.2067010e+04   1.2072639e+04   1.2077290e+04   1.2081941e+04   1.2085394e+04   1.2088845e+04   1.2090345e+04   1.2091846e+04   1.2091678e+04   1.2091509e+04   1.2090178e+04   1.2088847e+04   1.2086801e+04   1.2084754e+04   1.2082300e+04   1.2079845e+04   1.2077363e+04   1.2074881e+04   1.2072721e+04   1.2070563e+04   1.2068896e+04   1.2067229e+04   1.2066018e+04   1.2064807e+04   1.2064116e+04   1.2063425e+04   1.2063250e+04   1.2063075e+04   1.2063234e+04   1.2063392e+04   1.2063611e+04   1.2063830e+04   1.2064425e+04   1.2065021e+04   1.2066106e+04   1.2067192e+04   1.2068277e+04   1.2069362e+04   1.2070534e+04   1.2071704e+04   1.2072876e+04   1.2074048e+04   1.2075500e+04   1.2076953e+04   1.2078406e+04   1.2079858e+04   1.2081494e+04   1.2083128e+04   1.2084764e+04   1.2086401e+04   1.2087208e+04   1.2088014e+04   1.2088821e+04   1.2089628e+04   1.2090667e+04   1.2091755e+04   1.2093003e+04   1.2094421e+04   1.2095981e+04   1.2097624e+04   1.2099383e+04   1.2101240e+04   1.2103172e+04   1.2105166e+04   1.2107221e+04   1.2109327e+04   1.2111470e+04   1.2113628e+04   1.2115805e+04   1.2118802e+04   1.2122220e+04   1.2126037e+04   1.2130025e+04   1.2134657e+04   1.2139553e+04   1.2144725e+04   1.2149985e+04   1.2155064e+04   1.2159919e+04   1.2164523e+04   1.2168895e+04   1.2174151e+04   1.2179898e+04   1.2186244e+04   1.2192933e+04   1.2200330e+04   1.2208136e+04   1.2216499e+04   1.2225177e+04   1.2234223e+04   1.2243475e+04   1.2253476e+04   1.2263975e+04   1.2275277e+04   1.2287140e+04   1.2300013e+04   1.2313579e+04   1.2328069e+04   1.2343190e+04   1.2366477e+04   1.2392574e+04   1.2420902e+04   1.2449316e+04   1.2476484e+04   1.2501427e+04   1.2543837e+04   1.2586221e+04   1.2630251e+04   1.2674134e+04   1.2717721e+04   1.2759164e+04   1.2799077e+04   1.2835123e+04   1.2868697e+04   1.2897361e+04   1.2924079e+04   1.2946909e+04   1.2968209e+04   1.2986105e+04   1.3002896e+04   1.3016993e+04   1.3030254e+04   1.3041442e+04   1.3052185e+04   1.3061756e+04   1.3071144e+04   1.3079894e+04   1.3088598e+04   1.3096953e+04   1.3105313e+04   1.3113602e+04   1.3121637e+04
1.2303115e+04   1.2279502e+04   1.2259997e+04   1.2246304e+04   1.2236983e+04   1.2231855e+04   1.2229939e+04   1.2232065e+04   1.2237009e+04   1.2243616e+04   1.2251115e+04   1.2259514e+04   1.2267895e+04   1.2274947e+04   1.2281717e+04   1.2289113e+04   1.2296675e+04   1.2303723e+04   1.2309814e+04   1.2314553e+04   1.2317652e+04   1.2319436e+04   1.2320770e+04   1.2322376e+04   1.2324671e+04   1.2328109e+04   1.2333256e+04   1.2336500e+04   1.2338550e+04   1.2340806e+04   1.2342023e+04   1.2341253e+04   1.2338179e+04   1.2333250e+04   1.2327505e+04   1.2322092e+04   1.2318161e+04   1.2315043e+04   1.2312802e+04   1.2311579e+04   1.2311423e+04   1.2312095e+04   1.2313510e+04   1.2315426e+04   1.2317802e+04   1.2320700e+04   1.2324123e+04   1.2328060e+04   1.2331714e+04   1.2335368e+04   1.2339806e+04   1.2344243e+04   1.2349040e+04   1.2353837e+04   1.2358633e+04   1.2363430e+04   1.2367658e+04   1.2371885e+04   1.2375311e+04   1.2378737e+04   1.2380742e+04   1.2382745e+04   1.2383508e+04   1.2384271e+04   1.2384166e+04   1.2384060e+04   1.2383407e+04   1.2382755e+04   1.2381684e+04   1.2380612e+04   1.2379450e+04   1.2378286e+04   1.2377158e+04   1.2376029e+04   1.2375132e+04   1.2374234e+04   1.2373568e+04   1.2372901e+04   1.2372585e+04   1.2372269e+04   1.2372361e+04   1.2372453e+04   1.2372848e+04   1.2373244e+04   1.2373770e+04   1.2374298e+04   1.2375196e+04   1.2376095e+04   1.2377407e+04   1.2378719e+04   1.2380030e+04   1.2381342e+04   1.2382734e+04   1.2384126e+04   1.2385518e+04   1.2386910e+04   1.2388571e+04   1.2390230e+04   1.2391891e+04   1.2393552e+04   1.2395378e+04   1.2397206e+04   1.2399032e+04   1.2400859e+04   1.2401807e+04   1.2402755e+04   1.2403704e+04   1.2404653e+04   1.2405812e+04   1.2407017e+04   1.2408375e+04   1.2409897e+04   1.2411558e+04   1.2413297e+04   1.2415146e+04   1.2417090e+04   1.2419106e+04   1.2421180e+04   1.2423311e+04   1.2425490e+04   1.2427703e+04   1.2429929e+04   1.2432170e+04   1.2435231e+04   1.2438709e+04   1.2442586e+04   1.2446630e+04   1.2451312e+04   1.2456251e+04   1.2461459e+04   1.2466746e+04   1.2471856e+04   1.2476746e+04   1.2481398e+04   1.2485828e+04   1.2491154e+04   1.2496981e+04   1.2503410e+04   1.2510188e+04   1.2517661e+04   1.2525526e+04   1.2533921e+04   1.2542608e+04   1.2551636e+04   1.2560851e+04   1.2570786e+04   1.2581192e+04   1.2592372e+04   1.2604081e+04   1.2616783e+04   1.2630155e+04   1.2644438e+04   1.2659346e+04   1.2682330e+04   1.2708012e+04   1.2735954e+04   1.2764054e+04   1.2791362e+04   1.2816624e+04   1.2858317e+04   1.2899939e+04   1.2943026e+04   1.2985817e+04   1.3028408e+04   1.3069212e+04   1.3108531e+04   1.3143961e+04   1.3176953e+04   1.3205289e+04   1.3231704e+04   1.3254239e+04   1.3275289e+04   1.3293214e+04   1.3310064e+04   1.3324204e+04   1.3337505e+04   1.3348845e+04   1.3359720e+04   1.3369340e+04   1.3378733e+04   1.3387452e+04   1.3396086e+04   1.3404278e+04   1.3412443e+04   1.3420540e+04   1.3428355e+04
1.2551378e+04   1.2530693e+04   1.2513937e+04   1.2502544e+04   1.2495165e+04   1.2491956e+04   1.2491985e+04   1.2495751e+04   1.2501981e+04   1.2509730e+04   1.2518341e+04   1.2527609e+04   1.2536608e+04   1.2544684e+04   1.2552748e+04   1.2561268e+04   1.2569882e+04   1.2578097e+04   1.2585554e+04   1.2591806e+04   1.2596429e+04   1.2599634e+04   1.2602214e+04   1.2604877e+04   1.2608030e+04   1.2612090e+04   1.2617850e+04   1.2621928e+04   1.2624507e+04   1.2627106e+04   1.2628595e+04   1.2628344e+04   1.2626317e+04   1.2623055e+04   1.2619431e+04   1.2616441e+04   1.2614634e+04   1.2613320e+04   1.2612609e+04   1.2612703e+04   1.2613616e+04   1.2615108e+04   1.2617070e+04   1.2619268e+04   1.2621670e+04   1.2624363e+04   1.2627375e+04   1.2630761e+04   1.2633508e+04   1.2636256e+04   1.2639587e+04   1.2642918e+04   1.2646651e+04   1.2650384e+04   1.2654277e+04   1.2658171e+04   1.2661770e+04   1.2665370e+04   1.2668505e+04   1.2671640e+04   1.2673879e+04   1.2676118e+04   1.2677543e+04   1.2678968e+04   1.2679819e+04   1.2680670e+04   1.2681115e+04   1.2681560e+04   1.2681594e+04   1.2681628e+04   1.2681496e+04   1.2681364e+04   1.2681145e+04   1.2680926e+04   1.2680800e+04   1.2680675e+04   1.2680630e+04   1.2680586e+04   1.2680769e+04   1.2680952e+04   1.2681450e+04   1.2681947e+04   1.2682705e+04   1.2683462e+04   1.2684364e+04   1.2685265e+04   1.2686477e+04   1.2687688e+04   1.2689223e+04   1.2690759e+04   1.2692294e+04   1.2693830e+04   1.2695430e+04   1.2697028e+04   1.2698627e+04   1.2700225e+04   1.2702078e+04   1.2703930e+04   1.2705782e+04   1.2707633e+04   1.2709635e+04   1.2711637e+04   1.2713639e+04   1.2715640e+04   1.2716714e+04   1.2717788e+04   1.2718861e+04   1.2719935e+04   1.2721192e+04   1.2722492e+04   1.2723944e+04   1.2725557e+04   1.2727305e+04   1.2729129e+04   1.2731058e+04   1.2733080e+04   1.2735171e+04   1.2737317e+04   1.2739518e+04   1.2741764e+04   1.2744041e+04   1.2746329e+04   1.2748631e+04   1.2751750e+04   1.2755283e+04   1.2759213e+04   1.2763310e+04   1.2768020e+04   1.2772965e+04   1.2778152e+04   1.2783395e+04   1.2788478e+04   1.2793363e+04   1.2798045e+04   1.2802539e+04   1.2807957e+04   1.2813894e+04   1.2820445e+04   1.2827347e+04   1.2834923e+04   1.2842864e+04   1.2851305e+04   1.2860009e+04   1.2869036e+04   1.2878235e+04   1.2888114e+04   1.2898414e+04   1.2909404e+04   1.2920833e+04   1.2933199e+04   1.2946200e+04   1.2960136e+04   1.2974737e+04   1.2997500e+04   1.3023090e+04   1.3050708e+04   1.3078732e+04   1.3106570e+04   1.3133060e+04   1.3174143e+04   1.3215090e+04   1.3257260e+04   1.3298943e+04   1.3340591e+04   1.3380854e+04   1.3419596e+04   1.3454358e+04   1.3486731e+04   1.3514712e+04   1.3540751e+04   1.3562893e+04   1.3583663e+04   1.3601619e+04   1.3618486e+04   1.3632604e+04   1.3645906e+04   1.3657374e+04   1.3668337e+04   1.3677952e+04   1.3687316e+04   1.3695985e+04   1.3704518e+04   1.3712514e+04   1.3720473e+04   1.3728375e+04   1.3735969e+04
1.2799774e+04   1.2781835e+04   1.2767717e+04   1.2758551e+04   1.2753097e+04   1.2751807e+04   1.2753750e+04   1.2759132e+04   1.2766688e+04   1.2775629e+04   1.2785378e+04   1.2795531e+04   1.2805329e+04   1.2814512e+04   1.2823807e+04   1.2833414e+04   1.2843062e+04   1.2852415e+04   1.2861178e+04   1.2868842e+04   1.2874884e+04   1.2879421e+04   1.2883180e+04   1.2886870e+04   1.2890946e+04   1.2895911e+04   1.2902890e+04   1.2907808e+04   1.2910476e+04   1.2913479e+04   1.2915576e+04   1.2916319e+04   1.2915822e+04   1.2914614e+04   1.2913364e+04   1.2912926e+04   1.2913339e+04   1.2913838e+04   1.2914537e+04   1.2915685e+04   1.2917335e+04   1.2919294e+04   1.2921489e+04   1.2923727e+04   1.2926011e+04   1.2928420e+04   1.2931039e+04   1.2933974e+04   1.2936132e+04   1.2938289e+04   1.2940874e+04   1.2943458e+04   1.2946436e+04   1.2949413e+04   1.2952604e+04   1.2955795e+04   1.2958904e+04   1.2962013e+04   1.2964884e+04   1.2967754e+04   1.2970118e+04   1.2972482e+04   1.2974365e+04   1.2976248e+04   1.2977785e+04   1.2979323e+04   1.2980590e+04   1.2981857e+04   1.2982741e+04   1.2983624e+04   1.2984319e+04   1.2985015e+04   1.2985538e+04   1.2986061e+04   1.2986603e+04   1.2987145e+04   1.2987676e+04   1.2988206e+04   1.2988884e+04   1.2989563e+04   1.2990488e+04   1.2991414e+04   1.2992555e+04   1.2993694e+04   1.2994964e+04   1.2996234e+04   1.2997758e+04   1.2999281e+04   1.3001041e+04   1.3002799e+04   1.3004559e+04   1.3006318e+04   1.3008124e+04   1.3009930e+04   1.3011736e+04   1.3013542e+04   1.3015585e+04   1.3017628e+04   1.3019671e+04   1.3021715e+04   1.3023891e+04   1.3026069e+04   1.3028245e+04   1.3030422e+04   1.3031621e+04   1.3032820e+04   1.3034018e+04   1.3035218e+04   1.3036578e+04   1.3037978e+04   1.3039524e+04   1.3041228e+04   1.3043064e+04   1.3044972e+04   1.3046981e+04   1.3049081e+04   1.3051246e+04   1.3053464e+04   1.3055733e+04   1.3058045e+04   1.3060387e+04   1.3062736e+04   1.3065099e+04   1.3068274e+04   1.3071860e+04   1.3075841e+04   1.3079985e+04   1.3084683e+04   1.3089559e+04   1.3094612e+04   1.3099668e+04   1.3104562e+04   1.3109270e+04   1.3113813e+04   1.3118207e+04   1.3123655e+04   1.3129695e+04   1.3136408e+04   1.3143486e+04   1.3151220e+04   1.3159266e+04   1.3167791e+04   1.3176545e+04   1.3185613e+04   1.3194835e+04   1.3204621e+04   1.3214683e+04   1.3225221e+04   1.3236004e+04   1.3247711e+04   1.3260059e+04   1.3273480e+04   1.3287671e+04   1.3310726e+04   1.3336439e+04   1.3363837e+04   1.3391282e+04   1.3418565e+04   1.3445841e+04   1.3486666e+04   1.3527198e+04   1.3568148e+04   1.3608487e+04   1.3649852e+04   1.3689746e+04   1.3727836e+04   1.3761899e+04   1.3794032e+04   1.3821746e+04   1.3847225e+04   1.3868661e+04   1.3889160e+04   1.3907034e+04   1.3923696e+04   1.3937630e+04   1.3950948e+04   1.3962553e+04   1.3973557e+04   1.3983164e+04   1.3992582e+04   1.4001306e+04   1.4009804e+04   1.4017710e+04   1.4025614e+04   1.4033464e+04   1.4040984e+04
1.3047881e+04   1.3032543e+04   1.3020928e+04   1.3013917e+04   1.3010386e+04   1.3011034e+04   1.3014858e+04   1.3021857e+04   1.3030795e+04   1.3040988e+04   1.3051890e+04   1.3062996e+04   1.3073732e+04   1.3084037e+04   1.3094498e+04   1.3105197e+04   1.3115922e+04   1.3126430e+04   1.3136444e+04   1.3145416e+04   1.3152739e+04   1.3158460e+04   1.3163266e+04   1.3167894e+04   1.3172900e+04   1.3178924e+04   1.3187366e+04   1.3193272e+04   1.3196107e+04   1.3199627e+04   1.3202604e+04   1.3204659e+04   1.3205930e+04   1.3206859e+04   1.3207923e+04   1.3209819e+04   1.3212226e+04   1.3214320e+04   1.3216214e+04   1.3218212e+04   1.3220439e+04   1.3222765e+04   1.3225165e+04   1.3227494e+04   1.3229777e+04   1.3232136e+04   1.3234681e+04   1.3237539e+04   1.3239426e+04   1.3241313e+04   1.3243536e+04   1.3245759e+04   1.3248293e+04   1.3250828e+04   1.3253564e+04   1.3256301e+04   1.3259037e+04   1.3261774e+04   1.3264403e+04   1.3267030e+04   1.3269400e+04   1.3271769e+04   1.3273895e+04   1.3276023e+04   1.3278004e+04   1.3279987e+04   1.3281818e+04   1.3283650e+04   1.3285161e+04   1.3286671e+04   1.3287991e+04   1.3289312e+04   1.3290437e+04   1.3291562e+04   1.3292663e+04   1.3293764e+04   1.3294809e+04   1.3295854e+04   1.3297001e+04   1.3298147e+04   1.3299492e+04   1.3300838e+04   1.3302378e+04   1.3303918e+04   1.3305629e+04   1.3307340e+04   1.3309182e+04   1.3311025e+04   1.3313011e+04   1.3314997e+04   1.3316983e+04   1.3318969e+04   1.3320981e+04   1.3322993e+04   1.3325005e+04   1.3327016e+04   1.3329248e+04   1.3331479e+04   1.3333710e+04   1.3335941e+04   1.3338289e+04   1.3340637e+04   1.3342986e+04   1.3345333e+04   1.3346651e+04   1.3347970e+04   1.3349289e+04   1.3350608e+04   1.3352062e+04   1.3353556e+04   1.3355193e+04   1.3356984e+04   1.3358905e+04   1.3360893e+04   1.3362981e+04   1.3365156e+04   1.3367394e+04   1.3369681e+04   1.3372018e+04   1.3374394e+04   1.3376798e+04   1.3379209e+04   1.3381631e+04   1.3384858e+04   1.3388491e+04   1.3392514e+04   1.3396698e+04   1.3401308e+04   1.3406000e+04   1.3410764e+04   1.3415456e+04   1.3419965e+04   1.3424297e+04   1.3428491e+04   1.3432577e+04   1.3437908e+04   1.3443942e+04   1.3450743e+04   1.3457944e+04   1.3465823e+04   1.3473995e+04   1.3482657e+04   1.3491534e+04   1.3500727e+04   1.3510060e+04   1.3519762e+04   1.3529558e+04   1.3539569e+04   1.3549612e+04   1.3560605e+04   1.3572258e+04   1.3585126e+04   1.3598854e+04   1.3622151e+04   1.3647875e+04   1.3675236e+04   1.3701788e+04   1.3727660e+04   1.3753751e+04   1.3794814e+04   1.3835337e+04   1.3875243e+04   1.3914340e+04   1.3955838e+04   1.3995568e+04   1.4033205e+04   1.4066748e+04   1.4098947e+04   1.4126555e+04   1.4151460e+04   1.4172137e+04   1.4192413e+04   1.4210158e+04   1.4226565e+04   1.4240297e+04   1.4253688e+04   1.4265457e+04   1.4276527e+04   1.4286169e+04   1.4295726e+04   1.4304581e+04   1.4313118e+04   1.4321026e+04   1.4328977e+04   1.4336861e+04   1.4344463e+04
1.3295217e+04   1.3282317e+04   1.3273048e+04   1.3268114e+04   1.3266504e+04   1.3269102e+04   1.3274789e+04   1.3283425e+04   1.3293820e+04   1.3305336e+04   1.3317437e+04   1.3329593e+04   1.3341387e+04   1.3352824e+04   1.3364421e+04   1.3376244e+04   1.3388116e+04   1.3399822e+04   1.3411048e+04   1.3421141e+04   1.3429466e+04   1.3436194e+04   1.3442039e+04   1.3447659e+04   1.3453646e+04   1.3460761e+04   1.3470637e+04   1.3477706e+04   1.3480972e+04   1.3485162e+04   1.3489163e+04   1.3492583e+04   1.3495506e+04   1.3498266e+04   1.3501216e+04   1.3504900e+04   1.3508857e+04   1.3512224e+04   1.3515140e+04   1.3517934e+04   1.3520788e+04   1.3523611e+04   1.3526425e+04   1.3529113e+04   1.3531726e+04   1.3534353e+04   1.3537095e+04   1.3540061e+04   1.3542178e+04   1.3544296e+04   1.3546640e+04   1.3548983e+04   1.3551520e+04   1.3554057e+04   1.3556660e+04   1.3559262e+04   1.3561822e+04   1.3564383e+04   1.3566827e+04   1.3569271e+04   1.3571577e+04   1.3573881e+04   1.3576078e+04   1.3578275e+04   1.3580458e+04   1.3582641e+04   1.3584753e+04   1.3586865e+04   1.3588700e+04   1.3590534e+04   1.3592224e+04   1.3593913e+04   1.3595434e+04   1.3596956e+04   1.3598481e+04   1.3600006e+04   1.3601482e+04   1.3602957e+04   1.3604536e+04   1.3606113e+04   1.3607911e+04   1.3609709e+04   1.3611776e+04   1.3613842e+04   1.3616143e+04   1.3618445e+04   1.3620608e+04   1.3622771e+04   1.3624983e+04   1.3627196e+04   1.3629409e+04   1.3631622e+04   1.3633840e+04   1.3636056e+04   1.3638273e+04   1.3640491e+04   1.3642910e+04   1.3645330e+04   1.3647749e+04   1.3650169e+04   1.3652688e+04   1.3655206e+04   1.3657725e+04   1.3660244e+04   1.3661683e+04   1.3663121e+04   1.3664559e+04   1.3665998e+04   1.3667548e+04   1.3669136e+04   1.3670863e+04   1.3672741e+04   1.3674747e+04   1.3676816e+04   1.3678982e+04   1.3681231e+04   1.3683543e+04   1.3685899e+04   1.3688303e+04   1.3690746e+04   1.3693212e+04   1.3695685e+04   1.3698165e+04   1.3701446e+04   1.3705131e+04   1.3709202e+04   1.3713431e+04   1.3717998e+04   1.3722575e+04   1.3727144e+04   1.3731580e+04   1.3735814e+04   1.3739862e+04   1.3743781e+04   1.3747603e+04   1.3752749e+04   1.3758649e+04   1.3765369e+04   1.3772516e+04   1.3780345e+04   1.3788468e+04   1.3797115e+04   1.3805999e+04   1.3815230e+04   1.3824617e+04   1.3834250e+04   1.3843870e+04   1.3853506e+04   1.3863018e+04   1.3873431e+04   1.3884482e+04   1.3896813e+04   1.3910048e+04   1.3933098e+04   1.3958678e+04   1.3985771e+04   1.4011772e+04   1.4036564e+04   1.4061468e+04   1.4102532e+04   1.4142987e+04   1.4182263e+04   1.4220603e+04   1.4261970e+04   1.4301410e+04   1.4338637e+04   1.4371798e+04   1.4403917e+04   1.4431316e+04   1.4455732e+04   1.4475725e+04   1.4495614e+04   1.4513089e+04   1.4529205e+04   1.4542729e+04   1.4556100e+04   1.4567955e+04   1.4579082e+04   1.4588762e+04   1.4598421e+04   1.4607376e+04   1.4615974e+04   1.4623913e+04   1.4631919e+04   1.4639848e+04   1.4647565e+04
1.3541630e+04   1.3530973e+04   1.3523863e+04   1.3520899e+04   1.3521166e+04   1.3525689e+04   1.3533214e+04   1.3543505e+04   1.3555411e+04   1.3568311e+04   1.3581674e+04   1.3594975e+04   1.3607913e+04   1.3620501e+04   1.3633240e+04   1.3646222e+04   1.3659302e+04   1.3672242e+04   1.3684606e+04   1.3695547e+04   1.3704588e+04   1.3712213e+04   1.3719143e+04   1.3725900e+04   1.3732992e+04   1.3741260e+04   1.3752633e+04   1.3760953e+04   1.3764879e+04   1.3769837e+04   1.3774796e+04   1.3779340e+04   1.3783475e+04   1.3787472e+04   1.3791659e+04   1.3796427e+04   1.3801268e+04   1.3805572e+04   1.3809520e+04   1.3813380e+04   1.3817288e+04   1.3821114e+04   1.3824895e+04   1.3828518e+04   1.3832059e+04   1.3835609e+04   1.3839191e+04   1.3842799e+04   1.3845655e+04   1.3848511e+04   1.3851400e+04   1.3854289e+04   1.3857087e+04   1.3859886e+04   1.3862499e+04   1.3865110e+04   1.3867503e+04   1.3869898e+04   1.3872087e+04   1.3874276e+04   1.3876344e+04   1.3878414e+04   1.3880468e+04   1.3882522e+04   1.3884637e+04   1.3886751e+04   1.3888808e+04   1.3890866e+04   1.3892724e+04   1.3894582e+04   1.3896393e+04   1.3898204e+04   1.3899963e+04   1.3901722e+04   1.3903569e+04   1.3905417e+04   1.3907281e+04   1.3909145e+04   1.3911147e+04   1.3913149e+04   1.3915498e+04   1.3917847e+04   1.3920448e+04   1.3923048e+04   1.3925771e+04   1.3928493e+04   1.3931424e+04   1.3934356e+04   1.3936798e+04   1.3939241e+04   1.3941683e+04   1.3944126e+04   1.3946552e+04   1.3948977e+04   1.3951403e+04   1.3953829e+04   1.3956441e+04   1.3959053e+04   1.3961665e+04   1.3964276e+04   1.3966968e+04   1.3969662e+04   1.3972355e+04   1.3975047e+04   1.3976599e+04   1.3978151e+04   1.3979702e+04   1.3981254e+04   1.3982908e+04   1.3984597e+04   1.3986422e+04   1.3988395e+04   1.3990492e+04   1.3992648e+04   1.3994898e+04   1.3997228e+04   1.3999617e+04   1.4002050e+04   1.4004526e+04   1.4007036e+04   1.4009571e+04   1.4012107e+04   1.4014650e+04   1.4017991e+04   1.4021735e+04   1.4025864e+04   1.4030154e+04   1.4034714e+04   1.4039245e+04   1.4043717e+04   1.4048025e+04   1.4052086e+04   1.4055928e+04   1.4059606e+04   1.4063157e+04   1.4068087e+04   1.4073798e+04   1.4080362e+04   1.4087375e+04   1.4095084e+04   1.4103107e+04   1.4111690e+04   1.4120541e+04   1.4129765e+04   1.4139156e+04   1.4148697e+04   1.4158165e+04   1.4167545e+04   1.4176738e+04   1.4186844e+04   1.4197581e+04   1.4209592e+04   1.4222468e+04   1.4245089e+04   1.4270075e+04   1.4296745e+04   1.4322020e+04   1.4345460e+04   1.4368087e+04   1.4409037e+04   1.4449350e+04   1.4488158e+04   1.4525984e+04   1.4567123e+04   1.4606110e+04   1.4642935e+04   1.4675826e+04   1.4707854e+04   1.4735017e+04   1.4759055e+04   1.4778495e+04   1.4797955e+04   1.4815090e+04   1.4830944e+04   1.4844325e+04   1.4857666e+04   1.4869597e+04   1.4880825e+04   1.4890604e+04   1.4900381e+04   1.4909451e+04   1.4918147e+04   1.4926159e+04   1.4934233e+04   1.4942211e+04   1.4950060e+04
1.3787423e+04   1.3778827e+04   1.3773701e+04   1.3772593e+04   1.3774682e+04   1.3781091e+04   1.3790433e+04   1.3802382e+04   1.3815833e+04   1.3830158e+04   1.3844835e+04   1.3859353e+04   1.3873487e+04   1.3887253e+04   1.3901152e+04   1.3915314e+04   1.3929626e+04   1.3943820e+04   1.3957270e+04   1.3968991e+04   1.3978668e+04   1.3987000e+04   1.3994849e+04   1.4002740e+04   1.4011032e+04   1.4020413e+04   1.4033115e+04   1.4042645e+04   1.4047969e+04   1.4053892e+04   1.4059726e+04   1.4065120e+04   1.4070043e+04   1.4074758e+04   1.4079638e+04   1.4084638e+04   1.4089459e+04   1.4094047e+04   1.4098762e+04   1.4103769e+04   1.4109080e+04   1.4114427e+04   1.4119814e+04   1.4125076e+04   1.4130290e+04   1.4135440e+04   1.4140442e+04   1.4145284e+04   1.4149333e+04   1.4153381e+04   1.4157081e+04   1.4160779e+04   1.4163902e+04   1.4167024e+04   1.4169656e+04   1.4172288e+04   1.4174461e+04   1.4176633e+04   1.4178502e+04   1.4180371e+04   1.4182136e+04   1.4183900e+04   1.4185701e+04   1.4187503e+04   1.4189278e+04   1.4191054e+04   1.4192765e+04   1.4194477e+04   1.4196155e+04   1.4197833e+04   1.4199645e+04   1.4201457e+04   1.4203393e+04   1.4205330e+04   1.4207472e+04   1.4209613e+04   1.4211862e+04   1.4214110e+04   1.4216551e+04   1.4218994e+04   1.4221837e+04   1.4224681e+04   1.4227918e+04   1.4231155e+04   1.4234848e+04   1.4238540e+04   1.4242242e+04   1.4245943e+04   1.4248615e+04   1.4251286e+04   1.4253958e+04   1.4256629e+04   1.4259264e+04   1.4261898e+04   1.4264533e+04   1.4267168e+04   1.4269971e+04   1.4272775e+04   1.4275578e+04   1.4278383e+04   1.4281249e+04   1.4284116e+04   1.4286983e+04   1.4289849e+04   1.4291515e+04   1.4293180e+04   1.4294846e+04   1.4296511e+04   1.4298257e+04   1.4300038e+04   1.4301954e+04   1.4304017e+04   1.4306202e+04   1.4308446e+04   1.4310778e+04   1.4313189e+04   1.4315658e+04   1.4318167e+04   1.4320716e+04   1.4323296e+04   1.4325899e+04   1.4328501e+04   1.4331105e+04   1.4334514e+04   1.4338324e+04   1.4342523e+04   1.4346879e+04   1.4351478e+04   1.4356037e+04   1.4360528e+04   1.4364848e+04   1.4368898e+04   1.4372700e+04   1.4376293e+04   1.4379718e+04   1.4384478e+04   1.4389995e+04   1.4396354e+04   1.4403169e+04   1.4410698e+04   1.4418583e+04   1.4427059e+04   1.4435833e+04   1.4444993e+04   1.4454330e+04   1.4463829e+04   1.4473304e+04   1.4482741e+04   1.4492046e+04   1.4502206e+04   1.4512926e+04   1.4524769e+04   1.4537360e+04   1.4559027e+04   1.4583134e+04   1.4609184e+04   1.4634155e+04   1.4657199e+04   1.4678111e+04   1.4718616e+04   1.4758615e+04   1.4797468e+04   1.4835242e+04   1.4875623e+04   1.4914014e+04   1.4950503e+04   1.4983172e+04   1.5014711e+04   1.5041477e+04   1.5065264e+04   1.5084434e+04   1.5103404e+04   1.5120193e+04   1.5135897e+04   1.5149234e+04   1.5162473e+04   1.5174396e+04   1.5185709e+04   1.5195603e+04   1.5205471e+04   1.5214714e+04   1.5223633e+04   1.5231900e+04   1.5240207e+04   1.5248486e+04   1.5256756e+04
1.4032319e+04   1.4025593e+04   1.4022263e+04   1.4022906e+04   1.4026761e+04   1.4035048e+04   1.4046210e+04   1.4059850e+04   1.4074889e+04   1.4090701e+04   1.4106761e+04   1.4122573e+04   1.4137976e+04   1.4152987e+04   1.4168106e+04   1.4183502e+04   1.4199096e+04   1.4214603e+04   1.4229280e+04   1.4242041e+04   1.4252461e+04   1.4261316e+04   1.4269826e+04   1.4278689e+04   1.4288172e+04   1.4298685e+04   1.4312552e+04   1.4323275e+04   1.4330399e+04   1.4337662e+04   1.4344607e+04   1.4350968e+04   1.4356746e+04   1.4362233e+04   1.4367853e+04   1.4373061e+04   1.4377941e+04   1.4382785e+04   1.4388116e+04   1.4394055e+04   1.4400536e+04   1.4407228e+04   1.4414068e+04   1.4420854e+04   1.4427617e+04   1.4434237e+04   1.4440665e+04   1.4447050e+04   1.4452154e+04   1.4457258e+04   1.4461643e+04   1.4466029e+04   1.4469419e+04   1.4472810e+04   1.4475504e+04   1.4478197e+04   1.4480220e+04   1.4482242e+04   1.4483929e+04   1.4485615e+04   1.4487155e+04   1.4488693e+04   1.4490289e+04   1.4491883e+04   1.4493315e+04   1.4494746e+04   1.4496145e+04   1.4497543e+04   1.4499115e+04   1.4500687e+04   1.4502571e+04   1.4504454e+04   1.4506603e+04   1.4508753e+04   1.4511195e+04   1.4513636e+04   1.4516265e+04   1.4518894e+04   1.4521751e+04   1.4524608e+04   1.4527809e+04   1.4531011e+04   1.4534716e+04   1.4538422e+04   1.4542890e+04   1.4547358e+04   1.4551433e+04   1.4555509e+04   1.4558691e+04   1.4561872e+04   1.4565054e+04   1.4568235e+04   1.4571402e+04   1.4574568e+04   1.4577735e+04   1.4580901e+04   1.4583665e+04   1.4586428e+04   1.4589190e+04   1.4591953e+04   1.4594989e+04   1.4598025e+04   1.4601061e+04   1.4604098e+04   1.4605864e+04   1.4607630e+04   1.4609397e+04   1.4611163e+04   1.4613012e+04   1.4614888e+04   1.4616894e+04   1.4619044e+04   1.4621315e+04   1.4623639e+04   1.4626050e+04   1.4628539e+04   1.4631084e+04   1.4633666e+04   1.4636288e+04   1.4638938e+04   1.4641608e+04   1.4644277e+04   1.4646950e+04   1.4650441e+04   1.4654343e+04   1.4658638e+04   1.4663094e+04   1.4667838e+04   1.4672579e+04   1.4677289e+04   1.4681850e+04   1.4686120e+04   1.4690115e+04   1.4693857e+04   1.4697386e+04   1.4702131e+04   1.4707559e+04   1.4713773e+04   1.4720424e+04   1.4727769e+04   1.4735491e+04   1.4743803e+04   1.4752428e+04   1.4761438e+04   1.4770636e+04   1.4780089e+04   1.4789612e+04   1.4799213e+04   1.4808776e+04   1.4819087e+04   1.4829870e+04   1.4841605e+04   1.4853967e+04   1.4874719e+04   1.4898038e+04   1.4923284e+04   1.4948170e+04   1.4971576e+04   1.4992578e+04   1.5032139e+04   1.5071462e+04   1.5110431e+04   1.5148227e+04   1.5187240e+04   1.5224614e+04   1.5260610e+04   1.5292975e+04   1.5323669e+04   1.5349802e+04   1.5373395e+04   1.5392400e+04   1.5410755e+04   1.5427138e+04   1.5442740e+04   1.5456087e+04   1.5469146e+04   1.5480997e+04   1.5492395e+04   1.5502413e+04   1.5512350e+04   1.5521773e+04   1.5531030e+04   1.5539715e+04   1.5548381e+04   1.5557103e+04   1.5565912e+04
1.4275818e+04   1.4270720e+04   1.4268977e+04   1.4271249e+04   1.4276788e+04   1.4286929e+04   1.4299907e+04   1.4315271e+04   1.4331945e+04   1.4349304e+04   1.4366816e+04   1.4384002e+04   1.4400756e+04   1.4417096e+04   1.4433527e+04   1.4450246e+04   1.4467204e+04   1.4484131e+04   1.4500277e+04   1.4514461e+04   1.4525933e+04   1.4535430e+04   1.4544527e+04   1.4554210e+04   1.4564793e+04   1.4576562e+04   1.4591708e+04   1.4603735e+04   1.4612270e+04   1.4621125e+04   1.4629580e+04   1.4637349e+04   1.4644482e+04   1.4651288e+04   1.4658198e+04   1.4664607e+04   1.4670625e+04   1.4676450e+04   1.4682557e+04   1.4689120e+04   1.4696108e+04   1.4703281e+04   1.4710564e+04   1.4717782e+04   1.4724942e+04   1.4732046e+04   1.4739126e+04   1.4746336e+04   1.4751714e+04   1.4757094e+04   1.4761733e+04   1.4766372e+04   1.4769990e+04   1.4773608e+04   1.4776539e+04   1.4779470e+04   1.4781749e+04   1.4784028e+04   1.4785989e+04   1.4787951e+04   1.4789738e+04   1.4791525e+04   1.4793324e+04   1.4795123e+04   1.4796754e+04   1.4798385e+04   1.4800008e+04   1.4801630e+04   1.4803489e+04   1.4805347e+04   1.4807520e+04   1.4809693e+04   1.4812152e+04   1.4814609e+04   1.4817363e+04   1.4820117e+04   1.4823070e+04   1.4826023e+04   1.4829195e+04   1.4832367e+04   1.4835897e+04   1.4839426e+04   1.4843382e+04   1.4847337e+04   1.4851757e+04   1.4856177e+04   1.4860624e+04   1.4865073e+04   1.4868765e+04   1.4872457e+04   1.4876149e+04   1.4879843e+04   1.4883541e+04   1.4887239e+04   1.4890937e+04   1.4894636e+04   1.4897358e+04   1.4900080e+04   1.4902802e+04   1.4905523e+04   1.4908729e+04   1.4911935e+04   1.4915141e+04   1.4918347e+04   1.4920214e+04   1.4922080e+04   1.4923948e+04   1.4925814e+04   1.4927754e+04   1.4929720e+04   1.4931814e+04   1.4934050e+04   1.4936405e+04   1.4938810e+04   1.4941300e+04   1.4943866e+04   1.4946486e+04   1.4949142e+04   1.4951834e+04   1.4954553e+04   1.4957292e+04   1.4960026e+04   1.4962763e+04   1.4966321e+04   1.4970293e+04   1.4974664e+04   1.4979199e+04   1.4984038e+04   1.4988889e+04   1.4993726e+04   1.4998432e+04   1.5002842e+04   1.5006959e+04   1.5010799e+04   1.5014402e+04   1.5019210e+04   1.5024682e+04   1.5030919e+04   1.5037576e+04   1.5044916e+04   1.5052623e+04   1.5060902e+04   1.5069477e+04   1.5078418e+04   1.5087529e+04   1.5096895e+04   1.5106351e+04   1.5115926e+04   1.5125504e+04   1.5135855e+04   1.5146667e+04   1.5158371e+04   1.5170641e+04   1.5191077e+04   1.5213860e+04   1.5238511e+04   1.5262900e+04   1.5286131e+04   1.5307344e+04   1.5346590e+04   1.5385435e+04   1.5424575e+04   1.5462392e+04   1.5499197e+04   1.5534585e+04   1.5569414e+04   1.5601473e+04   1.5631204e+04   1.5656616e+04   1.5680168e+04   1.5699499e+04   1.5717486e+04   1.5733396e+04   1.5748927e+04   1.5762527e+04   1.5775568e+04   1.5787372e+04   1.5798956e+04   1.5809319e+04   1.5819318e+04   1.5828992e+04   1.5838911e+04   1.5848132e+04   1.5857228e+04   1.5866466e+04   1.5875859e+04
1.4517767e+04   1.4513995e+04   1.4513610e+04   1.4517356e+04   1.4524468e+04   1.4536386e+04   1.4551152e+04   1.4568242e+04   1.4586572e+04   1.4605510e+04   1.4624530e+04   1.4643155e+04   1.4661321e+04   1.4679042e+04   1.4696859e+04   1.4714987e+04   1.4733390e+04   1.4751823e+04   1.4769633e+04   1.4785551e+04   1.4798465e+04   1.4808975e+04   1.4818861e+04   1.4829384e+04   1.4840988e+04   1.4853967e+04   1.4870234e+04   1.4883604e+04   1.4893456e+04   1.4903964e+04   1.4914210e+04   1.4923802e+04   1.4932759e+04   1.4941373e+04   1.4950004e+04   1.4958230e+04   1.4965914e+04   1.4972927e+04   1.4979754e+04   1.4986582e+04   1.4993500e+04   1.5000438e+04   1.5007404e+04   1.5014283e+04   1.5021090e+04   1.5027888e+04   1.5034745e+04   1.5041793e+04   1.5047086e+04   1.5052380e+04   1.5057138e+04   1.5061896e+04   1.5065878e+04   1.5069859e+04   1.5073316e+04   1.5076771e+04   1.5079711e+04   1.5082652e+04   1.5085319e+04   1.5087988e+04   1.5090452e+04   1.5092916e+04   1.5095326e+04   1.5097735e+04   1.5100001e+04   1.5102267e+04   1.5104522e+04   1.5106776e+04   1.5109152e+04   1.5111527e+04   1.5114117e+04   1.5116706e+04   1.5119504e+04   1.5122300e+04   1.5125333e+04   1.5128366e+04   1.5131552e+04   1.5134738e+04   1.5138107e+04   1.5141477e+04   1.5145212e+04   1.5148949e+04   1.5153012e+04   1.5157076e+04   1.5161395e+04   1.5165713e+04   1.5170129e+04   1.5174545e+04   1.5178347e+04   1.5182150e+04   1.5185952e+04   1.5189754e+04   1.5193654e+04   1.5197555e+04   1.5201455e+04   1.5205355e+04   1.5208759e+04   1.5212162e+04   1.5215566e+04   1.5218969e+04   1.5222346e+04   1.5225723e+04   1.5229099e+04   1.5232475e+04   1.5234459e+04   1.5236444e+04   1.5238428e+04   1.5240412e+04   1.5242448e+04   1.5244508e+04   1.5246694e+04   1.5249017e+04   1.5251457e+04   1.5253946e+04   1.5256514e+04   1.5259157e+04   1.5261852e+04   1.5264580e+04   1.5267342e+04   1.5270131e+04   1.5272935e+04   1.5275736e+04   1.5278535e+04   1.5282159e+04   1.5286198e+04   1.5290637e+04   1.5295242e+04   1.5300153e+04   1.5305081e+04   1.5309999e+04   1.5314791e+04   1.5319290e+04   1.5323498e+04   1.5327425e+04   1.5331111e+04   1.5335997e+04   1.5341542e+04   1.5347844e+04   1.5354558e+04   1.5361944e+04   1.5369683e+04   1.5377978e+04   1.5386555e+04   1.5395478e+04   1.5404557e+04   1.5413880e+04   1.5423287e+04   1.5432809e+04   1.5442335e+04   1.5452623e+04   1.5463366e+04   1.5474993e+04   1.5487172e+04   1.5507462e+04   1.5529991e+04   1.5554253e+04   1.5578191e+04   1.5601136e+04   1.5622511e+04   1.5661674e+04   1.5700186e+04   1.5739733e+04   1.5777827e+04   1.5812249e+04   1.5845257e+04   1.5878602e+04   1.5910188e+04   1.5938888e+04   1.5963500e+04   1.5987064e+04   1.6006846e+04   1.6024546e+04   1.6039991e+04   1.6055423e+04   1.6069275e+04   1.6082324e+04   1.6094079e+04   1.6105861e+04   1.6116598e+04   1.6126648e+04   1.6136637e+04   1.6147283e+04   1.6156973e+04   1.6166485e+04   1.6176262e+04   1.6186260e+04
1.4758451e+04   1.4755731e+04   1.4756515e+04   1.4761608e+04   1.4770201e+04   1.4783833e+04   1.4800359e+04   1.4819173e+04   1.4839172e+04   1.4859713e+04   1.4880279e+04   1.4900392e+04   1.4920007e+04   1.4939140e+04   1.4958386e+04   1.4977978e+04   1.4997876e+04   1.5017866e+04   1.5037393e+04   1.5055115e+04   1.5069666e+04   1.5081498e+04   1.5092440e+04   1.5103913e+04   1.5116510e+04   1.5130659e+04   1.5148124e+04   1.5162758e+04   1.5173742e+04   1.5185744e+04   1.5197808e+04   1.5209363e+04   1.5220353e+04   1.5230923e+04   1.5241361e+04   1.5251397e+04   1.5260406e+04   1.5268567e+04   1.5276107e+04   1.5283209e+04   1.5290005e+04   1.5296619e+04   1.5303170e+04   1.5309616e+04   1.5315992e+04   1.5322382e+04   1.5328906e+04   1.5335793e+04   1.5340981e+04   1.5346169e+04   1.5351039e+04   1.5355910e+04   1.5360282e+04   1.5364653e+04   1.5368701e+04   1.5372748e+04   1.5376420e+04   1.5380091e+04   1.5383548e+04   1.5387006e+04   1.5390235e+04   1.5393466e+04   1.5396594e+04   1.5399722e+04   1.5402691e+04   1.5405661e+04   1.5408595e+04   1.5411530e+04   1.5414485e+04   1.5417439e+04   1.5420505e+04   1.5423571e+04   1.5426739e+04   1.5429907e+04   1.5433228e+04   1.5436549e+04   1.5439958e+04   1.5443367e+04   1.5446916e+04   1.5450465e+04   1.5454316e+04   1.5458166e+04   1.5462293e+04   1.5466418e+04   1.5470834e+04   1.5475250e+04   1.5479633e+04   1.5484016e+04   1.5487928e+04   1.5491841e+04   1.5495754e+04   1.5499667e+04   1.5503769e+04   1.5507870e+04   1.5511972e+04   1.5516074e+04   1.5520159e+04   1.5524244e+04   1.5528329e+04   1.5532415e+04   1.5535962e+04   1.5539510e+04   1.5543056e+04   1.5546603e+04   1.5548705e+04   1.5550806e+04   1.5552907e+04   1.5555010e+04   1.5557138e+04   1.5559290e+04   1.5561565e+04   1.5563976e+04   1.5566500e+04   1.5569070e+04   1.5571719e+04   1.5574438e+04   1.5577208e+04   1.5580009e+04   1.5582842e+04   1.5585698e+04   1.5588569e+04   1.5591434e+04   1.5594297e+04   1.5597985e+04   1.5602087e+04   1.5606591e+04   1.5611264e+04   1.5616245e+04   1.5621246e+04   1.5626238e+04   1.5631108e+04   1.5635684e+04   1.5639967e+04   1.5643969e+04   1.5647729e+04   1.5652686e+04   1.5658299e+04   1.5664661e+04   1.5671428e+04   1.5678855e+04   1.5686628e+04   1.5694943e+04   1.5703525e+04   1.5712441e+04   1.5721502e+04   1.5730796e+04   1.5740164e+04   1.5749638e+04   1.5759106e+04   1.5769322e+04   1.5779979e+04   1.5791506e+04   1.5803574e+04   1.5823731e+04   1.5846071e+04   1.5870048e+04   1.5893601e+04   1.5916189e+04   1.5937450e+04   1.5975877e+04   1.6013622e+04   1.6052423e+04   1.6089880e+04   1.6123717e+04   1.6155657e+04   1.6187940e+04   1.6218585e+04   1.6246593e+04   1.6270681e+04   1.6293880e+04   1.6313545e+04   1.6331154e+04   1.6346486e+04   1.6361802e+04   1.6375671e+04   1.6388779e+04   1.6400646e+04   1.6412564e+04   1.6423511e+04   1.6433825e+04   1.6443929e+04   1.6454657e+04   1.6464666e+04   1.6474530e+04   1.6484802e+04   1.6495359e+04
1.4997778e+04   1.4995843e+04   1.4997619e+04   1.5003968e+04   1.5013983e+04   1.5029303e+04   1.5047582e+04   1.5068141e+04   1.5089839e+04   1.5112025e+04   1.5134189e+04   1.5155844e+04   1.5176956e+04   1.5197555e+04   1.5218285e+04   1.5239402e+04   1.5260856e+04   1.5282457e+04   1.5303681e+04   1.5323162e+04   1.5339391e+04   1.5352702e+04   1.5364898e+04   1.5377446e+04   1.5391051e+04   1.5406309e+04   1.5424922e+04   1.5440820e+04   1.5453413e+04   1.5466860e+04   1.5480438e+04   1.5493749e+04   1.5506514e+04   1.5518816e+04   1.5530714e+04   1.5542221e+04   1.5553915e+04   1.5561230e+04   1.5566880e+04   1.5573727e+04   1.5581158e+04   1.5588573e+04   1.5595768e+04   1.5602598e+04   1.5609140e+04   1.5615599e+04   1.5622213e+04   1.5629239e+04   1.5634441e+04   1.5639645e+04   1.5644697e+04   1.5649749e+04   1.5654539e+04   1.5659329e+04   1.5663948e+04   1.5668566e+04   1.5672930e+04   1.5677295e+04   1.5681485e+04   1.5685674e+04   1.5689639e+04   1.5693603e+04   1.5697431e+04   1.5701259e+04   1.5704910e+04   1.5708562e+04   1.5712142e+04   1.5715722e+04   1.5719248e+04   1.5722773e+04   1.5726332e+04   1.5729892e+04   1.5733452e+04   1.5737013e+04   1.5740655e+04   1.5744298e+04   1.5747960e+04   1.5751622e+04   1.5755383e+04   1.5759145e+04   1.5763148e+04   1.5767151e+04   1.5771395e+04   1.5775638e+04   1.5780139e+04   1.5784641e+04   1.5789177e+04   1.5793715e+04   1.5797834e+04   1.5801953e+04   1.5806073e+04   1.5810192e+04   1.5814562e+04   1.5818930e+04   1.5823300e+04   1.5827668e+04   1.5832168e+04   1.5836668e+04   1.5841167e+04   1.5845666e+04   1.5849390e+04   1.5853114e+04   1.5856837e+04   1.5860561e+04   1.5862780e+04   1.5864999e+04   1.5867217e+04   1.5869436e+04   1.5871663e+04   1.5873910e+04   1.5876276e+04   1.5878773e+04   1.5881382e+04   1.5884034e+04   1.5886761e+04   1.5889556e+04   1.5892400e+04   1.5895274e+04   1.5898175e+04   1.5901099e+04   1.5904036e+04   1.5906966e+04   1.5909892e+04   1.5913644e+04   1.5917814e+04   1.5922389e+04   1.5927132e+04   1.5932188e+04   1.5937263e+04   1.5942334e+04   1.5947281e+04   1.5951935e+04   1.5956295e+04   1.5960372e+04   1.5964207e+04   1.5969235e+04   1.5974912e+04   1.5981332e+04   1.5988150e+04   1.5995621e+04   1.6003427e+04   1.6011764e+04   1.6020359e+04   1.6029276e+04   1.6038324e+04   1.6047595e+04   1.6056929e+04   1.6066357e+04   1.6075770e+04   1.6085916e+04   1.6096490e+04   1.6107919e+04   1.6119874e+04   1.6139891e+04   1.6162038e+04   1.6185748e+04   1.6208938e+04   1.6231082e+04   1.6251958e+04   1.6289457e+04   1.6326263e+04   1.6363919e+04   1.6400364e+04   1.6434538e+04   1.6466335e+04   1.6497729e+04   1.6527233e+04   1.6554658e+04   1.6578334e+04   1.6600892e+04   1.6620122e+04   1.6637745e+04   1.6653103e+04   1.6668245e+04   1.6682017e+04   1.6695216e+04   1.6707252e+04   1.6719245e+04   1.6730325e+04   1.6740895e+04   1.6750948e+04   1.6761466e+04   1.6771692e+04   1.6781884e+04   1.6792634e+04   1.6803703e+04
1.5235586e+04   1.5234160e+04   1.5236736e+04   1.5244241e+04   1.5255612e+04   1.5272585e+04   1.5292596e+04   1.5314907e+04   1.5338325e+04   1.5362187e+04   1.5385980e+04   1.5409223e+04   1.5431878e+04   1.5453984e+04   1.5476242e+04   1.5498944e+04   1.5522015e+04   1.5545276e+04   1.5568237e+04   1.5589546e+04   1.5607568e+04   1.5622514e+04   1.5636140e+04   1.5649925e+04   1.5664644e+04   1.5680904e+04   1.5700156e+04   1.5717315e+04   1.5733246e+04   1.5748704e+04   1.5764016e+04   1.5778982e+04   1.5793400e+04   1.5807126e+04   1.5820209e+04   1.5837878e+04   1.5853623e+04   1.5854785e+04   1.5850919e+04   1.5855930e+04   1.5864105e+04   1.5873190e+04   1.5882005e+04   1.5890208e+04   1.5897752e+04   1.5904958e+04   1.5912341e+04   1.5920987e+04   1.5926478e+04   1.5931969e+04   1.5937421e+04   1.5942872e+04   1.5948186e+04   1.5953500e+04   1.5958729e+04   1.5963957e+04   1.5968980e+04   1.5974005e+04   1.5978879e+04   1.5983754e+04   1.5988391e+04   1.5993029e+04   1.5997512e+04   1.6001996e+04   1.6006273e+04   1.6010550e+04   1.6014724e+04   1.6018897e+04   1.6022950e+04   1.6027003e+04   1.6031032e+04   1.6035062e+04   1.6039026e+04   1.6042989e+04   1.6046979e+04   1.6050970e+04   1.6054930e+04   1.6058891e+04   1.6062911e+04   1.6066933e+04   1.6071166e+04   1.6075401e+04   1.6079909e+04   1.6084416e+04   1.6089223e+04   1.6094030e+04   1.6098722e+04   1.6103413e+04   1.6107739e+04   1.6112066e+04   1.6116392e+04   1.6120718e+04   1.6125354e+04   1.6129991e+04   1.6134627e+04   1.6139263e+04   1.6144177e+04   1.6149091e+04   1.6154005e+04   1.6158919e+04   1.6162819e+04   1.6166719e+04   1.6170620e+04   1.6174520e+04   1.6176856e+04   1.6179191e+04   1.6181527e+04   1.6183864e+04   1.6186179e+04   1.6188515e+04   1.6190970e+04   1.6193554e+04   1.6196247e+04   1.6198981e+04   1.6201788e+04   1.6204659e+04   1.6207578e+04   1.6210523e+04   1.6213495e+04   1.6216486e+04   1.6219490e+04   1.6222483e+04   1.6225472e+04   1.6229289e+04   1.6233522e+04   1.6238162e+04   1.6242973e+04   1.6248097e+04   1.6253243e+04   1.6258385e+04   1.6263404e+04   1.6268130e+04   1.6272564e+04   1.6276717e+04   1.6280628e+04   1.6285729e+04   1.6291476e+04   1.6297957e+04   1.6304828e+04   1.6312341e+04   1.6320178e+04   1.6328535e+04   1.6337139e+04   1.6346052e+04   1.6355085e+04   1.6364329e+04   1.6373624e+04   1.6383000e+04   1.6392352e+04   1.6402423e+04   1.6412910e+04   1.6424234e+04   1.6436068e+04   1.6455910e+04   1.6477828e+04   1.6501248e+04   1.6524089e+04   1.6545864e+04   1.6566342e+04   1.6603076e+04   1.6638852e+04   1.6675335e+04   1.6710863e+04   1.6744895e+04   1.6776549e+04   1.6807352e+04   1.6835947e+04   1.6862768e+04   1.6885915e+04   1.6907825e+04   1.6926519e+04   1.6943910e+04   1.6959166e+04   1.6974104e+04   1.6987765e+04   1.7001005e+04   1.7013173e+04   1.7025252e+04   1.7036429e+04   1.7047192e+04   1.7057452e+04   1.7068052e+04   1.7078450e+04   1.7088939e+04   1.7100167e+04   1.7111754e+04
1.5471751e+04   1.5470580e+04   1.5473814e+04   1.5482353e+04   1.5495016e+04   1.5513577e+04   1.5535287e+04   1.5559306e+04   1.5584449e+04   1.5609993e+04   1.5635439e+04   1.5660271e+04   1.5684486e+04   1.5708101e+04   1.5731898e+04   1.5756171e+04   1.5780893e+04   1.5805859e+04   1.5830672e+04   1.5853999e+04   1.5874102e+04   1.5891064e+04   1.5906484e+04   1.5921789e+04   1.5937893e+04   1.5955320e+04   1.5974785e+04   1.5993335e+04   1.6012074e+04   1.6030586e+04   1.6048726e+04   1.6066153e+04   1.6082865e+04   1.6098635e+04   1.6113590e+04   1.6127601e+04   1.6140887e+04   1.6153375e+04   1.6159385e+04   1.6165395e+04   1.6171176e+04   1.6176957e+04   1.6182710e+04   1.6188464e+04   1.6194168e+04   1.6199871e+04   1.6205676e+04   1.6211481e+04   1.6217293e+04   1.6223106e+04   1.6228985e+04   1.6234864e+04   1.6240699e+04   1.6246532e+04   1.6252338e+04   1.6258144e+04   1.6263788e+04   1.6269432e+04   1.6274966e+04   1.6280501e+04   1.6285799e+04   1.6291098e+04   1.6296241e+04   1.6301385e+04   1.6306290e+04   1.6311195e+04   1.6315968e+04   1.6320741e+04   1.6325333e+04   1.6329925e+04   1.6334445e+04   1.6338964e+04   1.6343357e+04   1.6347750e+04   1.6352125e+04   1.6356499e+04   1.6360792e+04   1.6365087e+04   1.6369405e+04   1.6373724e+04   1.6378264e+04   1.6382804e+04   1.6387555e+04   1.6392307e+04   1.6397287e+04   1.6402268e+04   1.6407364e+04   1.6412461e+04   1.6417045e+04   1.6421631e+04   1.6426216e+04   1.6430801e+04   1.6435723e+04   1.6440645e+04   1.6445566e+04   1.6450488e+04   1.6455742e+04   1.6460997e+04   1.6466251e+04   1.6471505e+04   1.6475599e+04   1.6479691e+04   1.6483785e+04   1.6487879e+04   1.6490363e+04   1.6492846e+04   1.6495331e+04   1.6497815e+04   1.6500263e+04   1.6502723e+04   1.6505295e+04   1.6507992e+04   1.6510793e+04   1.6513629e+04   1.6516532e+04   1.6519496e+04   1.6522505e+04   1.6525536e+04   1.6528588e+04   1.6531659e+04   1.6534739e+04   1.6537805e+04   1.6540865e+04   1.6544753e+04   1.6549058e+04   1.6553767e+04   1.6558647e+04   1.6563840e+04   1.6569054e+04   1.6574263e+04   1.6579349e+04   1.6584148e+04   1.6588661e+04   1.6592901e+04   1.6596906e+04   1.6602100e+04   1.6607931e+04   1.6614486e+04   1.6621420e+04   1.6628975e+04   1.6636837e+04   1.6645198e+04   1.6653784e+04   1.6662662e+04   1.6671645e+04   1.6680826e+04   1.6690049e+04   1.6699347e+04   1.6708613e+04   1.6718587e+04   1.6728963e+04   1.6740158e+04   1.6751846e+04   1.6771480e+04   1.6793144e+04   1.6816220e+04   1.6838715e+04   1.6860283e+04   1.6880825e+04   1.6916665e+04   1.6951206e+04   1.6986352e+04   1.7020815e+04   1.7054450e+04   1.7085838e+04   1.7116213e+04   1.7144127e+04   1.7170412e+04   1.7193013e+04   1.7214286e+04   1.7232409e+04   1.7249441e+04   1.7264498e+04   1.7279241e+04   1.7292820e+04   1.7306108e+04   1.7318405e+04   1.7330599e+04   1.7341889e+04   1.7352929e+04   1.7363611e+04   1.7374534e+04   1.7385192e+04   1.7395961e+04   1.7407664e+04   1.7419779e+04
1.5706884e+04   1.5705778e+04   1.5709571e+04   1.5719127e+04   1.5732991e+04   1.5753163e+04   1.5776502e+04   1.5802235e+04   1.5829064e+04   1.5856337e+04   1.5883408e+04   1.5909840e+04   1.5935599e+04   1.5960786e+04   1.5986023e+04   1.6011831e+04   1.6038155e+04   1.6064879e+04   1.6091524e+04   1.6116944e+04   1.6139345e+04   1.6158624e+04   1.6176016e+04   1.6193025e+04   1.6210830e+04   1.6230022e+04   1.6249974e+04   1.6270409e+04   1.6291021e+04   1.6311409e+04   1.6331422e+04   1.6350756e+04   1.6369425e+04   1.6387130e+04   1.6403913e+04   1.6419533e+04   1.6434013e+04   1.6447145e+04   1.6453226e+04   1.6459306e+04   1.6464998e+04   1.6470691e+04   1.6476256e+04   1.6481821e+04   1.6487372e+04   1.6492923e+04   1.6498612e+04   1.6504301e+04   1.6510140e+04   1.6515981e+04   1.6521997e+04   1.6528014e+04   1.6534082e+04   1.6540151e+04   1.6546293e+04   1.6552436e+04   1.6558547e+04   1.6564658e+04   1.6570767e+04   1.6576878e+04   1.6582826e+04   1.6588775e+04   1.6594598e+04   1.6600420e+04   1.6605998e+04   1.6611576e+04   1.6616990e+04   1.6622405e+04   1.6627581e+04   1.6632755e+04   1.6637799e+04   1.6642843e+04   1.6647698e+04   1.6652553e+04   1.6657340e+04   1.6662126e+04   1.6666779e+04   1.6671433e+04   1.6676072e+04   1.6680711e+04   1.6685445e+04   1.6690180e+04   1.6695121e+04   1.6700062e+04   1.6705283e+04   1.6710504e+04   1.6716006e+04   1.6721509e+04   1.6726352e+04   1.6731196e+04   1.6736039e+04   1.6740883e+04   1.6746091e+04   1.6751298e+04   1.6756506e+04   1.6761714e+04   1.6767308e+04   1.6772903e+04   1.6778497e+04   1.6784092e+04   1.6788378e+04   1.6792665e+04   1.6796951e+04   1.6801237e+04   1.6803869e+04   1.6806502e+04   1.6809134e+04   1.6811766e+04   1.6814290e+04   1.6816842e+04   1.6819510e+04   1.6822307e+04   1.6825210e+04   1.6828144e+04   1.6831145e+04   1.6834204e+04   1.6837304e+04   1.6840423e+04   1.6843561e+04   1.6846712e+04   1.6849871e+04   1.6853009e+04   1.6856133e+04   1.6860079e+04   1.6864435e+04   1.6869192e+04   1.6874116e+04   1.6879352e+04   1.6884606e+04   1.6889857e+04   1.6894985e+04   1.6899833e+04   1.6904403e+04   1.6908709e+04   1.6912791e+04   1.6918052e+04   1.6923940e+04   1.6930535e+04   1.6937493e+04   1.6945050e+04   1.6952895e+04   1.6961219e+04   1.6969755e+04   1.6978571e+04   1.6987482e+04   1.6996582e+04   1.7005718e+04   1.7014921e+04   1.7024086e+04   1.7033947e+04   1.7044195e+04   1.7055249e+04   1.7066777e+04   1.7086225e+04   1.7107640e+04   1.7130372e+04   1.7152455e+04   1.7173635e+04   1.7193923e+04   1.7228786e+04   1.7262373e+04   1.7296632e+04   1.7330186e+04   1.7363221e+04   1.7394363e+04   1.7424621e+04   1.7451836e+04   1.7477328e+04   1.7499319e+04   1.7520000e+04   1.7537990e+04   1.7554986e+04   1.7570176e+04   1.7585126e+04   1.7598880e+04   1.7612378e+04   1.7624872e+04   1.7637278e+04   1.7648722e+04   1.7659860e+04   1.7669710e+04   1.7679846e+04   1.7690762e+04   1.7701826e+04   1.7713867e+04   1.7726359e+04
1.5940694e+04   1.5939362e+04   1.5943929e+04   1.5954510e+04   1.5969733e+04   1.5991345e+04   1.6016548e+04   1.6044030e+04   1.6072651e+04   1.6101570e+04   1.6130372e+04   1.6158393e+04   1.6185780e+04   1.6212321e+04   1.6239254e+04   1.6266678e+04   1.6294766e+04   1.6323188e+04   1.6351943e+04   1.6379752e+04   1.6404777e+04   1.6426205e+04   1.6445314e+04   1.6464114e+04   1.6483901e+04   1.6505395e+04   1.6526486e+04   1.6549106e+04   1.6571770e+04   1.6594204e+04   1.6616135e+04   1.6637531e+04   1.6658339e+04   1.6678365e+04   1.6697498e+04   1.6715311e+04   1.6731385e+04   1.6745484e+04   1.6751729e+04   1.6757973e+04   1.6763592e+04   1.6769210e+04   1.6774506e+04   1.6779802e+04   1.6785017e+04   1.6790232e+04   1.6795514e+04   1.6800797e+04   1.6806336e+04   1.6811874e+04   1.6817638e+04   1.6823400e+04   1.6829371e+04   1.6835341e+04   1.6841547e+04   1.6847753e+04   1.6854172e+04   1.6860592e+04   1.6867176e+04   1.6873759e+04   1.6880319e+04   1.6886877e+04   1.6893358e+04   1.6899840e+04   1.6906094e+04   1.6912347e+04   1.6918409e+04   1.6924471e+04   1.6930241e+04   1.6936010e+04   1.6941584e+04   1.6947158e+04   1.6952488e+04   1.6957818e+04   1.6963030e+04   1.6968241e+04   1.6973272e+04   1.6978304e+04   1.6983286e+04   1.6988268e+04   1.6993060e+04   1.6997851e+04   1.7002933e+04   1.7008015e+04   1.7013402e+04   1.7018791e+04   1.7024101e+04   1.7029411e+04   1.7034504e+04   1.7039596e+04   1.7044688e+04   1.7049780e+04   1.7055221e+04   1.7060662e+04   1.7066104e+04   1.7071545e+04   1.7077200e+04   1.7082857e+04   1.7088513e+04   1.7094169e+04   1.7098665e+04   1.7103161e+04   1.7107658e+04   1.7112154e+04   1.7114912e+04   1.7117669e+04   1.7120428e+04   1.7123186e+04   1.7125865e+04   1.7128550e+04   1.7131340e+04   1.7134248e+04   1.7137256e+04   1.7140291e+04   1.7143387e+04   1.7146540e+04   1.7149733e+04   1.7152942e+04   1.7156168e+04   1.7159406e+04   1.7162650e+04   1.7165877e+04   1.7169094e+04   1.7173151e+04   1.7177628e+04   1.7182514e+04   1.7187572e+04   1.7192945e+04   1.7198337e+04   1.7203724e+04   1.7208985e+04   1.7213952e+04   1.7218628e+04   1.7223029e+04   1.7227191e+04   1.7232537e+04   1.7238504e+04   1.7245172e+04   1.7252191e+04   1.7259809e+04   1.7267705e+04   1.7276068e+04   1.7284627e+04   1.7293448e+04   1.7302347e+04   1.7311414e+04   1.7320498e+04   1.7329630e+04   1.7338708e+04   1.7348465e+04   1.7358595e+04   1.7369511e+04   1.7380888e+04   1.7400154e+04   1.7421332e+04   1.7443741e+04   1.7465382e+04   1.7485933e+04   1.7505429e+04   1.7539639e+04   1.7572664e+04   1.7606335e+04   1.7639156e+04   1.7671628e+04   1.7702564e+04   1.7732664e+04   1.7759070e+04   1.7783695e+04   1.7805055e+04   1.7825415e+04   1.7843730e+04   1.7861143e+04   1.7876928e+04   1.7892398e+04   1.7906563e+04   1.7920374e+04   1.7933140e+04   1.7945779e+04   1.7957389e+04   1.7968278e+04   1.7976575e+04   1.7985027e+04   1.7995613e+04   1.8006871e+04   1.8019212e+04   1.8032016e+04
1.6173448e+04   1.6171806e+04   1.6177253e+04   1.6188843e+04   1.6205410e+04   1.6228302e+04   1.6255495e+04   1.6284806e+04   1.6315171e+04   1.6345672e+04   1.6376210e+04   1.6405809e+04   1.6434503e+04   1.6462325e+04   1.6491161e+04   1.6520494e+04   1.6550403e+04   1.6580897e+04   1.6612814e+04   1.6644438e+04   1.6672954e+04   1.6697056e+04   1.6718183e+04   1.6738955e+04   1.6760504e+04   1.6783091e+04   1.6802435e+04   1.6826921e+04   1.6851418e+04   1.6875599e+04   1.6899272e+04   1.6922513e+04   1.6945470e+04   1.6967991e+04   1.6989833e+04   1.7009983e+04   1.7028048e+04   1.7043592e+04   1.7050325e+04   1.7057058e+04   1.7062882e+04   1.7068706e+04   1.7073956e+04   1.7079206e+04   1.7084113e+04   1.7089020e+04   1.7093790e+04   1.7098560e+04   1.7103473e+04   1.7108388e+04   1.7113579e+04   1.7118769e+04   1.7124408e+04   1.7130047e+04   1.7136186e+04   1.7142327e+04   1.7148965e+04   1.7155605e+04   1.7162606e+04   1.7169608e+04   1.7176717e+04   1.7183826e+04   1.7190931e+04   1.7198036e+04   1.7204929e+04   1.7211824e+04   1.7218516e+04   1.7225208e+04   1.7231550e+04   1.7237893e+04   1.7243997e+04   1.7250102e+04   1.7255901e+04   1.7261701e+04   1.7267345e+04   1.7272988e+04   1.7278409e+04   1.7283829e+04   1.7289179e+04   1.7294530e+04   1.7299618e+04   1.7304706e+04   1.7310122e+04   1.7315537e+04   1.7321307e+04   1.7327078e+04   1.7332196e+04   1.7337314e+04   1.7342655e+04   1.7347995e+04   1.7353336e+04   1.7358676e+04   1.7364351e+04   1.7370026e+04   1.7375701e+04   1.7381376e+04   1.7387094e+04   1.7392811e+04   1.7398528e+04   1.7404245e+04   1.7408952e+04   1.7413658e+04   1.7418363e+04   1.7423069e+04   1.7425953e+04   1.7428837e+04   1.7431722e+04   1.7434606e+04   1.7437393e+04   1.7440185e+04   1.7443080e+04   1.7446092e+04   1.7449201e+04   1.7452335e+04   1.7455528e+04   1.7458775e+04   1.7462061e+04   1.7465361e+04   1.7468677e+04   1.7472001e+04   1.7475331e+04   1.7478643e+04   1.7481942e+04   1.7486085e+04   1.7490651e+04   1.7495632e+04   1.7500790e+04   1.7506269e+04   1.7511770e+04   1.7517268e+04   1.7522641e+04   1.7527715e+04   1.7532492e+04   1.7536984e+04   1.7541229e+04   1.7546649e+04   1.7552681e+04   1.7559407e+04   1.7566475e+04   1.7574127e+04   1.7582047e+04   1.7590427e+04   1.7598992e+04   1.7607806e+04   1.7616683e+04   1.7625712e+04   1.7634738e+04   1.7643794e+04   1.7652778e+04   1.7662421e+04   1.7672422e+04   1.7683190e+04   1.7694400e+04   1.7713434e+04   1.7734324e+04   1.7756375e+04   1.7777584e+04   1.7797602e+04   1.7816346e+04   1.7849891e+04   1.7881981e+04   1.7914590e+04   1.7946551e+04   1.7978609e+04   1.8009668e+04   1.8039522e+04   1.8064791e+04   1.8087726e+04   1.8108181e+04   1.8128182e+04   1.8146361e+04   1.8164133e+04   1.8180488e+04   1.8196536e+04   1.8211082e+04   1.8225305e+04   1.8238427e+04   1.8251371e+04   1.8263095e+04   1.8275027e+04   1.8284571e+04   1.8292654e+04   1.8302283e+04   1.8313201e+04   1.8325603e+04   1.8338632e+04
1.6408696e+04   1.6406945e+04   1.6413065e+04   1.6425541e+04   1.6443137e+04   1.6467161e+04   1.6496117e+04   1.6527256e+04   1.6559114e+04   1.6591113e+04   1.6623190e+04   1.6654225e+04   1.6683671e+04   1.6712709e+04   1.6743269e+04   1.6774564e+04   1.6806112e+04   1.6839175e+04   1.6875004e+04   1.6911574e+04   1.6945682e+04   1.6975043e+04   1.7000319e+04   1.7023311e+04   1.7046196e+04   1.7068962e+04   1.7085174e+04   1.7111004e+04   1.7136732e+04   1.7162061e+04   1.7186989e+04   1.7211617e+04   1.7236426e+04   1.7261129e+04   1.7285189e+04   1.7307195e+04   1.7327009e+04   1.7343884e+04   1.7351119e+04   1.7358353e+04   1.7364361e+04   1.7370369e+04   1.7375513e+04   1.7380657e+04   1.7385061e+04   1.7389467e+04   1.7393439e+04   1.7397410e+04   1.7401389e+04   1.7405370e+04   1.7409741e+04   1.7414112e+04   1.7419248e+04   1.7424386e+04   1.7430347e+04   1.7436309e+04   1.7443062e+04   1.7449814e+04   1.7457127e+04   1.7464440e+04   1.7472011e+04   1.7479582e+04   1.7487233e+04   1.7494883e+04   1.7502365e+04   1.7509847e+04   1.7517125e+04   1.7524403e+04   1.7531300e+04   1.7538198e+04   1.7544838e+04   1.7551478e+04   1.7557761e+04   1.7564044e+04   1.7570150e+04   1.7576258e+04   1.7582096e+04   1.7587936e+04   1.7593689e+04   1.7599440e+04   1.7604999e+04   1.7610556e+04   1.7616264e+04   1.7621972e+04   1.7627702e+04   1.7633433e+04   1.7638883e+04   1.7644335e+04   1.7649982e+04   1.7655629e+04   1.7661277e+04   1.7666924e+04   1.7672878e+04   1.7678833e+04   1.7684787e+04   1.7690742e+04   1.7696532e+04   1.7702321e+04   1.7708110e+04   1.7713901e+04   1.7718853e+04   1.7723806e+04   1.7728758e+04   1.7733711e+04   1.7736760e+04   1.7739811e+04   1.7742862e+04   1.7745912e+04   1.7748829e+04   1.7751748e+04   1.7754764e+04   1.7757891e+04   1.7761111e+04   1.7764351e+04   1.7767645e+04   1.7770989e+04   1.7774368e+04   1.7777758e+04   1.7781160e+04   1.7784568e+04   1.7787979e+04   1.7791368e+04   1.7794744e+04   1.7798964e+04   1.7803608e+04   1.7808667e+04   1.7813905e+04   1.7819465e+04   1.7825048e+04   1.7830630e+04   1.7836087e+04   1.7841250e+04   1.7846121e+04   1.7850708e+04   1.7855054e+04   1.7860568e+04   1.7866683e+04   1.7873475e+04   1.7880593e+04   1.7888271e+04   1.7896193e+04   1.7904546e+04   1.7913059e+04   1.7921797e+04   1.7930579e+04   1.7939500e+04   1.7948408e+04   1.7957335e+04   1.7966181e+04   1.7975672e+04   1.7985500e+04   1.7996077e+04   1.8007074e+04   1.8025838e+04   1.8046418e+04   1.8068041e+04   1.8088797e+04   1.8108633e+04   1.8127313e+04   1.8159882e+04   1.8190608e+04   1.8221880e+04   1.8252814e+04   1.8284728e+04   1.8316325e+04   1.8345936e+04   1.8369531e+04   1.8389899e+04   1.8409001e+04   1.8428130e+04   1.8445579e+04   1.8463391e+04   1.8479974e+04   1.8496518e+04   1.8511335e+04   1.8526018e+04   1.8539515e+04   1.8552814e+04   1.8564656e+04   1.8578800e+04   1.8591465e+04   1.8601225e+04   1.8611111e+04   1.8621562e+04   1.8633806e+04   1.8646966e+04
1.6653163e+04   1.6651507e+04   1.6658169e+04   1.6671347e+04   1.6689763e+04   1.6714757e+04   1.6745147e+04   1.6777899e+04   1.6811091e+04   1.6844443e+04   1.6877847e+04   1.6909956e+04   1.6939960e+04   1.6970039e+04   1.7001968e+04   1.7034703e+04   1.7067585e+04   1.7102703e+04   1.7140944e+04   1.7181686e+04   1.7223456e+04   1.7262183e+04   1.7294748e+04   1.7321711e+04   1.7346250e+04   1.7368728e+04   1.7380516e+04   1.7407046e+04   1.7433379e+04   1.7459298e+04   1.7485032e+04   1.7510808e+04   1.7537156e+04   1.7563357e+04   1.7588824e+04   1.7612073e+04   1.7633089e+04   1.7650879e+04   1.7658455e+04   1.7666032e+04   1.7672045e+04   1.7678059e+04   1.7682926e+04   1.7687791e+04   1.7691446e+04   1.7695102e+04   1.7698017e+04   1.7700932e+04   1.7703922e+04   1.7706912e+04   1.7710433e+04   1.7713954e+04   1.7718579e+04   1.7723204e+04   1.7728899e+04   1.7734594e+04   1.7741313e+04   1.7748032e+04   1.7755452e+04   1.7762872e+04   1.7770689e+04   1.7778507e+04   1.7786505e+04   1.7794502e+04   1.7802377e+04   1.7810252e+04   1.7817977e+04   1.7825703e+04   1.7833069e+04   1.7840434e+04   1.7847576e+04   1.7854719e+04   1.7861503e+04   1.7868287e+04   1.7874902e+04   1.7881517e+04   1.7887832e+04   1.7894149e+04   1.7900357e+04   1.7906566e+04   1.7912546e+04   1.7918526e+04   1.7924182e+04   1.7929838e+04   1.7934812e+04   1.7939787e+04   1.7945571e+04   1.7951355e+04   1.7957309e+04   1.7963263e+04   1.7969218e+04   1.7975172e+04   1.7981406e+04   1.7987640e+04   1.7993873e+04   1.8000107e+04   1.8005970e+04   1.8011832e+04   1.8017694e+04   1.8023557e+04   1.8028755e+04   1.8033955e+04   1.8039153e+04   1.8044352e+04   1.8047569e+04   1.8050785e+04   1.8054002e+04   1.8057218e+04   1.8060216e+04   1.8063226e+04   1.8066340e+04   1.8069570e+04   1.8072896e+04   1.8076239e+04   1.8079633e+04   1.8083075e+04   1.8086551e+04   1.8090034e+04   1.8093524e+04   1.8097018e+04   1.8100512e+04   1.8103978e+04   1.8107420e+04   1.8111710e+04   1.8116415e+04   1.8121528e+04   1.8126812e+04   1.8132413e+04   1.8138031e+04   1.8143644e+04   1.8149132e+04   1.8154341e+04   1.8159276e+04   1.8163953e+04   1.8168406e+04   1.8174020e+04   1.8180213e+04   1.8187052e+04   1.8194189e+04   1.8201845e+04   1.8209705e+04   1.8217961e+04   1.8226348e+04   1.8234939e+04   1.8243559e+04   1.8252306e+04   1.8261034e+04   1.8269780e+04   1.8278446e+04   1.8287753e+04   1.8297392e+04   1.8307764e+04   1.8318542e+04   1.8337105e+04   1.8357342e+04   1.8378462e+04   1.8398871e+04   1.8418315e+04   1.8436071e+04   1.8467462e+04   1.8497180e+04   1.8526960e+04   1.8556542e+04   1.8589027e+04   1.8621206e+04   1.8650337e+04   1.8679782e+04   1.8707519e+04   1.8730620e+04   1.8753322e+04   1.8772108e+04   1.8791215e+04   1.8808327e+04   1.8825491e+04   1.8840909e+04   1.8856333e+04   1.8870527e+04   1.8884529e+04   1.8896933e+04   1.8910574e+04   1.8909788e+04   1.8906438e+04   1.8916731e+04   1.8927626e+04   1.8939898e+04   1.8953123e+04
1.6913676e+04   1.6911784e+04   1.6919048e+04   1.6932959e+04   1.6952315e+04   1.6978258e+04   1.7009834e+04   1.7043964e+04   1.7078499e+04   1.7113162e+04   1.7147725e+04   1.7180662e+04   1.7211485e+04   1.7242678e+04   1.7275654e+04   1.7309286e+04   1.7343172e+04   1.7378605e+04   1.7416331e+04   1.7459322e+04   1.7508775e+04   1.7559037e+04   1.7601964e+04   1.7635564e+04   1.7663594e+04   1.7686201e+04   1.7693618e+04   1.7720190e+04   1.7746371e+04   1.7772242e+04   1.7798115e+04   1.7824490e+04   1.7851544e+04   1.7878195e+04   1.7904035e+04   1.7927715e+04   1.7949092e+04   1.7967228e+04   1.7974880e+04   1.7982533e+04   1.7988407e+04   1.7994281e+04   1.7998780e+04   1.8003280e+04   1.8006175e+04   1.8009072e+04   1.8010997e+04   1.8012923e+04   1.8015039e+04   1.8017155e+04   1.8019869e+04   1.8022584e+04   1.8026621e+04   1.8030658e+04   1.8035896e+04   1.8041135e+04   1.8047537e+04   1.8053939e+04   1.8061129e+04   1.8068320e+04   1.8076078e+04   1.8083835e+04   1.8091876e+04   1.8099917e+04   1.8107967e+04   1.8116016e+04   1.8124044e+04   1.8132072e+04   1.8139844e+04   1.8147617e+04   1.8155259e+04   1.8162902e+04   1.8170232e+04   1.8177562e+04   1.8184748e+04   1.8191936e+04   1.8198801e+04   1.8205665e+04   1.8212391e+04   1.8219116e+04   1.8225548e+04   1.8231978e+04   1.8238372e+04   1.8244767e+04   1.8250672e+04   1.8256577e+04   1.8262636e+04   1.8268695e+04   1.8274547e+04   1.8280400e+04   1.8286252e+04   1.8292105e+04   1.8297374e+04   1.8302644e+04   1.8307913e+04   1.8313183e+04   1.8317042e+04   1.8320903e+04   1.8324764e+04   1.8328624e+04   1.8334087e+04   1.8339550e+04   1.8345013e+04   1.8350477e+04   1.8353909e+04   1.8357341e+04   1.8360774e+04   1.8364206e+04   1.8367502e+04   1.8370764e+04   1.8374098e+04   1.8377526e+04   1.8381037e+04   1.8384548e+04   1.8388102e+04   1.8391699e+04   1.8395327e+04   1.8398953e+04   1.8402582e+04   1.8406210e+04   1.8409836e+04   1.8413435e+04   1.8417016e+04   1.8421465e+04   1.8426342e+04   1.8431633e+04   1.8437091e+04   1.8442864e+04   1.8448646e+04   1.8454411e+04   1.8460040e+04   1.8465390e+04   1.8470464e+04   1.8475283e+04   1.8479883e+04   1.8485653e+04   1.8491989e+04   1.8498955e+04   1.8506186e+04   1.8513913e+04   1.8521819e+04   1.8530086e+04   1.8538435e+04   1.8546921e+04   1.8555382e+04   1.8563929e+04   1.8572441e+04   1.8580976e+04   1.8589445e+04   1.8598585e+04   1.8608075e+04   1.8618309e+04   1.8628927e+04   1.8647527e+04   1.8667868e+04   1.8689079e+04   1.8709074e+04   1.8728275e+04   1.8742111e+04   1.8772768e+04   1.8801395e+04   1.8828474e+04   1.8855661e+04   1.8888131e+04   1.8920008e+04   1.8951289e+04   1.8992744e+04   1.9033960e+04   1.9065310e+04   1.9093389e+04   1.9114492e+04   1.9134637e+04   1.9152095e+04   1.9169473e+04   1.9185424e+04   1.9201470e+04   1.9216422e+04   1.9231162e+04   1.9244289e+04   1.9251954e+04   1.9229390e+04   1.9206253e+04   1.9215082e+04   1.9227069e+04   1.9239732e+04   1.9253046e+04
1.7195244e+04   1.7192037e+04   1.7199735e+04   1.7214678e+04   1.7235283e+04   1.7262368e+04   1.7294971e+04   1.7330340e+04   1.7366272e+04   1.7402325e+04   1.7437995e+04   1.7471899e+04   1.7504020e+04   1.7536601e+04   1.7570557e+04   1.7604999e+04   1.7639440e+04   1.7673522e+04   1.7709193e+04   1.7752911e+04   1.7807925e+04   1.7867786e+04   1.7921226e+04   1.7963750e+04   1.7997719e+04   1.8022506e+04   1.8028381e+04   1.8055035e+04   1.8080848e+04   1.8106254e+04   1.8131762e+04   1.8157801e+04   1.8184430e+04   1.8210438e+04   1.8235643e+04   1.8258660e+04   1.8279527e+04   1.8297109e+04   1.8304531e+04   1.8311953e+04   1.8317516e+04   1.8323079e+04   1.8327302e+04   1.8331526e+04   1.8334072e+04   1.8336619e+04   1.8338174e+04   1.8339728e+04   1.8341447e+04   1.8343164e+04   1.8345454e+04   1.8347744e+04   1.8351399e+04   1.8355053e+04   1.8359896e+04   1.8364738e+04   1.8370780e+04   1.8376822e+04   1.8383706e+04   1.8390589e+04   1.8398106e+04   1.8405624e+04   1.8413523e+04   1.8421422e+04   1.8429487e+04   1.8437554e+04   1.8445733e+04   1.8453913e+04   1.8461986e+04   1.8470059e+04   1.8478095e+04   1.8486132e+04   1.8493914e+04   1.8501697e+04   1.8509357e+04   1.8517018e+04   1.8524323e+04   1.8531627e+04   1.8538752e+04   1.8545876e+04   1.8552624e+04   1.8559371e+04   1.8564363e+04   1.8569355e+04   1.8571362e+04   1.8573368e+04   1.8579701e+04   1.8586034e+04   1.8591786e+04   1.8597537e+04   1.8603287e+04   1.8609038e+04   1.8613343e+04   1.8617648e+04   1.8621952e+04   1.8626257e+04   1.8628115e+04   1.8629974e+04   1.8631832e+04   1.8633691e+04   1.8639418e+04   1.8645147e+04   1.8650874e+04   1.8656602e+04   1.8660250e+04   1.8663898e+04   1.8667545e+04   1.8671194e+04   1.8674877e+04   1.8678443e+04   1.8682025e+04   1.8685663e+04   1.8689358e+04   1.8693037e+04   1.8696747e+04   1.8700493e+04   1.8704263e+04   1.8708029e+04   1.8711792e+04   1.8715551e+04   1.8719305e+04   1.8723040e+04   1.8726768e+04   1.8731389e+04   1.8736469e+04   1.8742003e+04   1.8747739e+04   1.8753827e+04   1.8759962e+04   1.8766109e+04   1.8772144e+04   1.8777812e+04   1.8783122e+04   1.8788050e+04   1.8792640e+04   1.8798324e+04   1.8804501e+04   1.8811271e+04   1.8818279e+04   1.8825869e+04   1.8833700e+04   1.8841884e+04   1.8850179e+04   1.8858627e+04   1.8867093e+04   1.8875694e+04   1.8884291e+04   1.8892934e+04   1.8901505e+04   1.8910856e+04   1.8920597e+04   1.8931129e+04   1.8942042e+04   1.8962457e+04   1.8984718e+04   1.9007301e+04   1.9027302e+04   1.9042673e+04   1.9049758e+04   1.9080730e+04   1.9119733e+04   1.9159431e+04   1.9193151e+04   1.9230274e+04   1.9267203e+04   1.9309979e+04   1.9358777e+04   1.9406412e+04   1.9444546e+04   1.9476667e+04   1.9500747e+04   1.9522412e+04   1.9540815e+04   1.9558846e+04   1.9575482e+04   1.9592260e+04   1.9607964e+04   1.9623376e+04   1.9637187e+04   1.9638271e+04   1.9605265e+04   1.9575250e+04   1.9580942e+04   1.9593316e+04   1.9606285e+04   1.9619623e+04
1.7500276e+04   1.7494720e+04   1.7502349e+04   1.7518376e+04   1.7540610e+04   1.7569077e+04   1.7602671e+04   1.7639052e+04   1.7676421e+04   1.7713971e+04   1.7750941e+04   1.7786106e+04   1.7820018e+04   1.7854299e+04   1.7889460e+04   1.7924793e+04   1.7959393e+04   1.7992115e+04   1.8026966e+04   1.8071480e+04   1.8128874e+04   1.8193163e+04   1.8253519e+04   1.8303999e+04   1.8345011e+04   1.8374502e+04   1.8383125e+04   1.8410612e+04   1.8436519e+04   1.8461708e+04   1.8486902e+04   1.8512328e+04   1.8538052e+04   1.8563116e+04   1.8587190e+04   1.8609252e+04   1.8629081e+04   1.8645835e+04   1.8652789e+04   1.8659745e+04   1.8665053e+04   1.8670360e+04   1.8674376e+04   1.8678390e+04   1.8681021e+04   1.8683652e+04   1.8685296e+04   1.8686940e+04   1.8688786e+04   1.8690633e+04   1.8693119e+04   1.8695606e+04   1.8699382e+04   1.8703159e+04   1.8708084e+04   1.8713010e+04   1.8719073e+04   1.8725135e+04   1.8732048e+04   1.8738959e+04   1.8746466e+04   1.8753973e+04   1.8761946e+04   1.8769918e+04   1.8778130e+04   1.8786343e+04   1.8794750e+04   1.8803158e+04   1.8811571e+04   1.8819984e+04   1.8828382e+04   1.8836779e+04   1.8844978e+04   1.8853179e+04   1.8861211e+04   1.8869243e+04   1.8876913e+04   1.8884583e+04   1.8891988e+04   1.8899392e+04   1.8906379e+04   1.8913365e+04   1.8919885e+04   1.8926404e+04   1.8931319e+04   1.8936234e+04   1.8942457e+04   1.8948680e+04   1.8953359e+04   1.8958037e+04   1.8962716e+04   1.8967395e+04   1.8969013e+04   1.8970633e+04   1.8972251e+04   1.8973870e+04   1.8970925e+04   1.8967981e+04   1.8965036e+04   1.8962091e+04   1.8967765e+04   1.8973439e+04   1.8979114e+04   1.8984788e+04   1.8987273e+04   1.8989759e+04   1.8992244e+04   1.8994729e+04   1.8997342e+04   1.9000027e+04   1.9002869e+04   1.9005871e+04   1.9009012e+04   1.9012233e+04   1.9015561e+04   1.9018981e+04   1.9022470e+04   1.9026011e+04   1.9029594e+04   1.9033209e+04   1.9036844e+04   1.9040487e+04   1.9044138e+04   1.9048792e+04   1.9054035e+04   1.9059889e+04   1.9066094e+04   1.9072797e+04   1.9079666e+04   1.9086651e+04   1.9093596e+04   1.9099769e+04   1.9105173e+04   1.9109663e+04   1.9113335e+04   1.9117942e+04   1.9123048e+04   1.9128914e+04   1.9135244e+04   1.9142538e+04   1.9150465e+04   1.9159370e+04   1.9168915e+04   1.9179022e+04   1.9189353e+04   1.9199859e+04   1.9210268e+04   1.9220524e+04   1.9230475e+04   1.9241200e+04   1.9252361e+04   1.9264429e+04   1.9276963e+04   1.9301111e+04   1.9326871e+04   1.9353500e+04   1.9373069e+04   1.9375579e+04   1.9350214e+04   1.9388784e+04   1.9451407e+04   1.9515351e+04   1.9564864e+04   1.9610997e+04   1.9658304e+04   1.9711111e+04   1.9763357e+04   1.9813050e+04   1.9854882e+04   1.9889861e+04   1.9916754e+04   1.9939824e+04   1.9959346e+04   1.9977706e+04   1.9994887e+04   2.0011931e+04   2.0028117e+04   2.0043759e+04   2.0057978e+04   2.0054940e+04   2.0015304e+04   1.9981967e+04   1.9985287e+04   1.9997043e+04   2.0009953e+04   2.0023066e+04
1.7827017e+04   1.7819803e+04   1.7826723e+04   1.7843760e+04   1.7867729e+04   1.7897940e+04   1.7932368e+04   1.7969742e+04   1.8008502e+04   1.8047777e+04   1.8086186e+04   1.8123095e+04   1.8159224e+04   1.8195621e+04   1.8231994e+04   1.8268330e+04   1.8303201e+04   1.8336839e+04   1.8374056e+04   1.8420518e+04   1.8477609e+04   1.8540522e+04   1.8601637e+04   1.8656338e+04   1.8703102e+04   1.8737915e+04   1.8751957e+04   1.8782004e+04   1.8809671e+04   1.8835982e+04   1.8861944e+04   1.8887591e+04   1.8913330e+04   1.8938160e+04   1.8962275e+04   1.8984079e+04   1.9003799e+04   1.9019735e+04   1.9026245e+04   1.9032756e+04   1.9037353e+04   1.9041951e+04   1.9045419e+04   1.9048885e+04   1.9050923e+04   1.9052960e+04   1.9054335e+04   1.9055709e+04   1.9057757e+04   1.9059804e+04   1.9062687e+04   1.9065570e+04   1.9069895e+04   1.9074220e+04   1.9079681e+04   1.9085141e+04   1.9091805e+04   1.9098470e+04   1.9106005e+04   1.9113541e+04   1.9121770e+04   1.9130000e+04   1.9138706e+04   1.9147411e+04   1.9156296e+04   1.9165182e+04   1.9174196e+04   1.9183210e+04   1.9192034e+04   1.9200859e+04   1.9209573e+04   1.9218288e+04   1.9226605e+04   1.9234922e+04   1.9243013e+04   1.9251104e+04   1.9258670e+04   1.9266236e+04   1.9273529e+04   1.9280820e+04   1.9287583e+04   1.9294345e+04   1.9298043e+04   1.9301741e+04   1.9300422e+04   1.9299102e+04   1.9305213e+04   1.9311325e+04   1.9314931e+04   1.9318538e+04   1.9322145e+04   1.9325751e+04   1.9324684e+04   1.9323617e+04   1.9322549e+04   1.9321483e+04   1.9313735e+04   1.9305987e+04   1.9298240e+04   1.9290492e+04   1.9296113e+04   1.9301733e+04   1.9307354e+04   1.9312974e+04   1.9314296e+04   1.9315619e+04   1.9316942e+04   1.9318265e+04   1.9322143e+04   1.9325384e+04   1.9328357e+04   1.9331250e+04   1.9334151e+04   1.9337048e+04   1.9340033e+04   1.9343120e+04   1.9346300e+04   1.9349570e+04   1.9352926e+04   1.9356352e+04   1.9359830e+04   1.9363575e+04   1.9367603e+04   1.9373431e+04   1.9380374e+04   1.9388336e+04   1.9396840e+04   1.9406125e+04   1.9415659e+04   1.9425323e+04   1.9434852e+04   1.9442955e+04   1.9449618e+04   1.9454631e+04   1.9458181e+04   1.9463488e+04   1.9469839e+04   1.9477483e+04   1.9485843e+04   1.9496078e+04   1.9507586e+04   1.9520518e+04   1.9534205e+04   1.9548320e+04   1.9562350e+04   1.9576176e+04   1.9589486e+04   1.9602182e+04   1.9614164e+04   1.9627184e+04   1.9640750e+04   1.9655319e+04   1.9670321e+04   1.9699318e+04   1.9727617e+04   1.9758745e+04   1.9776339e+04   1.9768696e+04   1.9731161e+04   1.9791676e+04   1.9864792e+04   1.9933701e+04   1.9992377e+04   2.0047680e+04   2.0102194e+04   2.0157883e+04   2.0210935e+04   2.0260160e+04   2.0302891e+04   2.0338996e+04   2.0368105e+04   2.0393011e+04   2.0414263e+04   2.0434064e+04   2.0452252e+04   2.0470092e+04   2.0486810e+04   2.0502860e+04   2.0517386e+04   2.0511580e+04   2.0473116e+04   2.0444111e+04   2.0445419e+04   2.0455773e+04   2.0468087e+04   2.0480756e+04
1.8172649e+04   1.8165749e+04   1.8172213e+04   1.8189821e+04   1.8215599e+04   1.8247322e+04   1.8282736e+04   1.8321072e+04   1.8361338e+04   1.8402215e+04   1.8442303e+04   1.8481483e+04   1.8520483e+04   1.8558909e+04   1.8596667e+04   1.8633920e+04   1.8670400e+04   1.8707865e+04   1.8750362e+04   1.8799797e+04   1.8855275e+04   1.8912955e+04   1.8969857e+04   1.9023876e+04   1.9073142e+04   1.9112653e+04   1.9134107e+04   1.9168181e+04   1.9199407e+04   1.9228591e+04   1.9256768e+04   1.9284014e+04   1.9311227e+04   1.9337651e+04   1.9363723e+04   1.9387527e+04   1.9409369e+04   1.9426734e+04   1.9433686e+04   1.9440638e+04   1.9445424e+04   1.9450209e+04   1.9453813e+04   1.9457416e+04   1.9460027e+04   1.9462637e+04   1.9465114e+04   1.9467591e+04   1.9470995e+04   1.9474399e+04   1.9478698e+04   1.9482997e+04   1.9488760e+04   1.9494523e+04   1.9501349e+04   1.9508175e+04   1.9516465e+04   1.9524755e+04   1.9534101e+04   1.9543447e+04   1.9553607e+04   1.9563767e+04   1.9574444e+04   1.9585121e+04   1.9595637e+04   1.9606152e+04   1.9616419e+04   1.9626686e+04   1.9636256e+04   1.9645826e+04   1.9654921e+04   1.9664017e+04   1.9672390e+04   1.9680763e+04   1.9688733e+04   1.9696703e+04   1.9704090e+04   1.9711476e+04   1.9718601e+04   1.9725726e+04   1.9732418e+04   1.9739110e+04   1.9745449e+04   1.9751789e+04   1.9757328e+04   1.9762867e+04   1.9769133e+04   1.9775400e+04   1.9780388e+04   1.9785377e+04   1.9790365e+04   1.9795352e+04   1.9797741e+04   1.9800131e+04   1.9802519e+04   1.9804909e+04   1.9803708e+04   1.9802508e+04   1.9801307e+04   1.9800107e+04   1.9806449e+04   1.9812792e+04   1.9819135e+04   1.9825477e+04   1.9827994e+04   1.9830511e+04   1.9833029e+04   1.9835546e+04   1.9838549e+04   1.9841639e+04   1.9844931e+04   1.9848428e+04   1.9852097e+04   1.9855837e+04   1.9859693e+04   1.9863649e+04   1.9867675e+04   1.9871750e+04   1.9875864e+04   1.9880005e+04   1.9884161e+04   1.9888306e+04   1.9892452e+04   1.9897892e+04   1.9903981e+04   1.9910734e+04   1.9917816e+04   1.9925469e+04   1.9933262e+04   1.9941173e+04   1.9949011e+04   1.9956033e+04   1.9962191e+04   1.9967339e+04   1.9971573e+04   1.9977296e+04   1.9983708e+04   1.9991005e+04   1.9998743e+04   2.0007307e+04   2.0016326e+04   2.0026247e+04   2.0036591e+04   2.0047425e+04   2.0058380e+04   2.0069549e+04   2.0080638e+04   2.0091642e+04   2.0102387e+04   2.0114432e+04   2.0127153e+04   2.0141042e+04   2.0155432e+04   2.0183219e+04   2.0210750e+04   2.0240453e+04   2.0259547e+04   2.0262873e+04   2.0253797e+04   2.0307316e+04   2.0365902e+04   2.0422949e+04   2.0476775e+04   2.0530600e+04   2.0584274e+04   2.0638747e+04   2.0690039e+04   2.0736860e+04   2.0778687e+04   2.0815032e+04   2.0845906e+04   2.0872883e+04   2.0896375e+04   2.0917989e+04   2.0937495e+04   2.0956063e+04   2.0973220e+04   2.0989388e+04   2.1003944e+04   2.0998748e+04   2.0964840e+04   2.0940622e+04   2.0941237e+04   2.0950062e+04   2.0961296e+04   2.0973096e+04
1.8535334e+04   1.8530957e+04   1.8538034e+04   1.8556150e+04   1.8583262e+04   1.8616064e+04   1.8652661e+04   1.8692202e+04   1.8733958e+04   1.8776282e+04   1.8818393e+04   1.8860461e+04   1.8902339e+04   1.8942668e+04   1.8981985e+04   1.9020898e+04   1.9060637e+04   1.9103705e+04   1.9152081e+04   1.9204612e+04   1.9258042e+04   1.9309815e+04   1.9360591e+04   1.9410915e+04   1.9459522e+04   1.9501622e+04   1.9528883e+04   1.9567170e+04   1.9603009e+04   1.9636149e+04   1.9667650e+04   1.9698037e+04   1.9728387e+04   1.9758204e+04   1.9787987e+04   1.9816188e+04   1.9843103e+04   1.9864800e+04   1.9873621e+04   1.9882443e+04   1.9888011e+04   1.9893578e+04   1.9897285e+04   1.9900992e+04   1.9903800e+04   1.9906609e+04   1.9909470e+04   1.9912331e+04   1.9915976e+04   1.9919622e+04   1.9924164e+04   1.9928708e+04   1.9934654e+04   1.9940600e+04   1.9947658e+04   1.9954717e+04   1.9963638e+04   1.9972558e+04   1.9982808e+04   1.9993060e+04   2.0005454e+04   2.0017847e+04   2.0031154e+04   2.0044463e+04   2.0057113e+04   2.0069763e+04   2.0081690e+04   2.0093618e+04   2.0104201e+04   2.0114784e+04   2.0124485e+04   2.0134186e+04   2.0142696e+04   2.0151207e+04   2.0159077e+04   2.0166946e+04   2.0174130e+04   2.0181314e+04   2.0188237e+04   2.0195160e+04   2.0201687e+04   2.0208215e+04   2.0213761e+04   2.0219308e+04   2.0222970e+04   2.0226632e+04   2.0233055e+04   2.0239476e+04   2.0245845e+04   2.0252214e+04   2.0258583e+04   2.0264952e+04   2.0270798e+04   2.0276644e+04   2.0282490e+04   2.0288335e+04   2.0293683e+04   2.0299029e+04   2.0304376e+04   2.0309722e+04   2.0316786e+04   2.0323851e+04   2.0330915e+04   2.0337980e+04   2.0341692e+04   2.0345404e+04   2.0349115e+04   2.0352827e+04   2.0357000e+04   2.0361206e+04   2.0365556e+04   2.0370066e+04   2.0374712e+04   2.0379380e+04   2.0384112e+04   2.0388901e+04   2.0393730e+04   2.0398564e+04   2.0403394e+04   2.0408214e+04   2.0413024e+04   2.0417796e+04   2.0422536e+04   2.0428492e+04   2.0435011e+04   2.0442086e+04   2.0449388e+04   2.0457157e+04   2.0464973e+04   2.0472823e+04   2.0480533e+04   2.0487723e+04   2.0494415e+04   2.0500600e+04   2.0506348e+04   2.0513715e+04   2.0521784e+04   2.0530612e+04   2.0539732e+04   2.0549469e+04   2.0559373e+04   2.0569685e+04   2.0580049e+04   2.0590563e+04   2.0601016e+04   2.0611588e+04   2.0622089e+04   2.0632590e+04   2.0642958e+04   2.0654554e+04   2.0666756e+04   2.0679998e+04   2.0693678e+04   2.0719163e+04   2.0745218e+04   2.0772932e+04   2.0794346e+04   2.0808032e+04   2.0815197e+04   2.0856733e+04   2.0899790e+04   2.0947132e+04   2.0994153e+04   2.1044489e+04   2.1094838e+04   2.1145456e+04   2.1193155e+04   2.1237537e+04   2.1277686e+04   2.1313838e+04   2.1345584e+04   2.1374340e+04   2.1399595e+04   2.1422877e+04   2.1443624e+04   2.1463198e+04   2.1480849e+04   2.1497311e+04   2.1511973e+04   2.1507776e+04   2.1481739e+04   2.1466528e+04   2.1468263e+04   2.1476348e+04   2.1486733e+04   2.1498014e+04
