648.515         647.319         646.427         645.594         644.541         643.699         643.564         644.071         645.085         646.258         647.186         648.566         651.196         654.056         656.027         657.032         657.371         657.271         656.854         656.228         655.523         655.200         655.146         655.215         655.346         655.498         655.659         655.802         655.933         655.995         655.966         655.831         655.615         655.339         655.025         654.703         654.536         654.489         654.527         654.622         654.687         654.751         654.824         654.897         654.973         655.049         655.127         655.204         655.279         655.355         655.427         655.499         655.563         655.627         655.678         655.728         655.758         655.788         655.791         655.794         655.767         655.740         655.682         655.624         655.539         655.454         655.347         655.240         655.119         654.997         654.869         654.740         654.611         654.482         654.358         654.233         654.118         654.003         653.899         653.795         653.705         653.615         653.539         653.463         653.402         653.340         653.290         653.240         653.211         653.183         653.169         653.155         653.156         653.157         653.172         653.186         653.214         653.242         653.283         653.324         653.377         653.430         653.495         653.560         653.637         653.713         653.801         653.889         653.989         654.088         654.192         654.304         654.421         654.544         654.672         654.805         654.940         655.080         655.224         655.374         655.528         655.688         655.852         656.021         656.194         656.371         656.551         656.734         656.920         657.107         657.296         657.486         657.676         657.867         658.057         658.248         658.436         658.623         658.808         658.991         659.170         659.348         659.521         659.691         659.856         660.017         660.173         660.323         660.467         660.603         660.731         660.850         660.959         661.055         661.139         661.370         661.562         661.671         661.649         661.574         661.535         661.636         661.836         662.175         662.677         663.335         663.793         664.006         663.999         663.824         663.655         663.231         662.662         662.012         661.294         660.333         659.253         658.219         657.298         656.530         656.397         656.591         656.813         656.746         656.036         655.252
728.254         726.808         725.732         724.736         723.483         722.467         722.271         722.860         724.063         725.451         726.555         728.244         731.439         734.860         737.206         738.411         738.825         738.709         738.210         737.472         736.643         736.236         736.155         736.234         736.392         736.576         736.771         736.946         737.107         737.181         736.996         736.872         736.697         736.391         736.028         735.810         735.792         735.367         735.099         735.652         736.416         736.647         736.657         736.585         736.512         736.458         736.439         736.450         736.458         736.394         736.482         736.570         736.649         736.727         736.789         736.850         736.887         736.924         736.930         736.935         736.904         736.873         736.805         736.738         736.637         736.537         736.410         736.284         736.141         735.997         735.846         735.694         735.544         735.393         735.249         735.106         734.975         734.844         734.728         734.613         734.515         734.417         734.337         734.257         734.190         734.123         734.064         734.006         733.980         733.955         733.946         733.938         733.945         733.952         733.974         733.995         734.031         734.066         734.115         734.164         734.225         734.286         734.360         734.433         734.518         734.603         734.699         734.795         734.902         735.009         735.129         735.253         735.381         735.514         735.652         735.796         735.946         736.102         736.263         736.429         736.598         736.771         736.948         737.128         737.311         737.498         737.686         737.877         738.069         738.263         738.458         738.654         738.850         739.046         739.241         739.435         739.627         739.818         740.005         740.190         740.370         740.547         740.719         740.886         741.048         741.205         741.355         741.499         741.637         741.768         741.892         742.009         742.118         742.221         742.316         742.497         742.672         742.816         742.898         742.934         742.937         743.070         743.228         743.421         743.651         743.918         744.183         744.407         744.561         744.627         744.608         744.469         744.200         743.808         743.242         742.308         741.145         739.965         738.855         737.836         737.676         737.909         738.175         738.096         737.244         736.303
808.000         806.308         805.048         803.884         802.428         801.231         800.976         801.655         803.056         804.663         805.943         807.939         811.694         815.670         818.389         819.792         820.282         820.149         819.568         818.719         817.766         817.274         817.167         817.255         817.440         817.657         817.886         818.094         818.285         818.369         818.205         818.001         817.724         817.389         817.057         816.797         816.640         816.623         816.658         816.732         816.804         816.854         816.898         816.948         817.009         817.082         817.165         817.254         817.346         817.433         817.536         817.640         817.732         817.824         817.897         817.970         818.014         818.058         818.065         818.072         818.038         818.003         817.926         817.849         817.735         817.620         817.476         817.331         817.167         817.003         816.830         816.656         816.483         816.311         816.146         815.982         815.833         815.683         815.552         815.421         815.311         815.200         815.111         815.022         814.947         814.872         814.805         814.737         814.712         814.688         814.682         814.677         814.689         814.701         814.730         814.759         814.803         814.847         814.905         814.963         815.035         815.106         815.191         815.275         815.371         815.468         815.576         815.683         815.802         815.921         816.053         816.189         816.328         816.472         816.621         816.776         816.937         817.104         817.274         817.450         817.629         817.812         817.997         818.186         818.378         818.573         818.769         818.968         819.168         819.370         819.573         819.776         819.980         820.184         820.388         820.591         820.792         820.992         821.189         821.384         821.576         821.765         821.949         822.130         822.305         822.476         822.641         822.801         822.954         823.101         823.241         823.374         823.500         823.618         823.730         823.930         824.125         824.291         824.391         824.439         824.452         824.593         824.748         824.923         825.119         825.329         825.542         825.742         825.910         826.022         826.062         826.009         825.859         825.605         825.108         824.169         822.930         821.629         820.362         819.142         818.955         819.227         819.538         819.445         818.451         817.353
887.749         885.812         884.368         883.036         881.376         879.994         879.683         880.453         882.054         883.882         885.339         887.641         891.955         896.484         899.575         901.175         901.740         901.589         900.928         899.967         898.890         898.313         898.180         898.277         898.488         898.738         899.001         899.242         899.465         899.559         899.383         899.212         898.859         898.383         897.907         897.518         897.257         897.255         897.316         897.376         897.428         897.495         897.581         897.686         897.803         897.927         898.056         898.185         898.316         898.472         898.591         898.709         898.816         898.922         899.006         899.090         899.141         899.192         899.201         899.210         899.171         899.133         899.047         898.961         898.832         898.704         898.541         898.379         898.194         898.009         897.813         897.618         897.423         897.228         897.043         896.857         896.689         896.521         896.373         896.226         896.103         895.979         895.881         895.782         895.698         895.614         895.538         895.462         895.438         895.414         895.411         895.409         895.427         895.444         895.481         895.517         895.569         895.622         895.691         895.759         895.842         895.924         896.020         896.116         896.224         896.332         896.453         896.573         896.704         896.835         896.979         897.127         897.278         897.435         897.595         897.763         897.935         898.113         898.295         898.482         898.671         898.865         899.061         899.261         899.463         899.668         899.875         900.084         900.294         900.506         900.719         900.932         901.146         901.360         901.573         901.786         901.997         902.207         902.414         902.620         902.823         903.023         903.219         903.411         903.599         903.783         903.962         904.135         904.303         904.465         904.621         904.770         904.913         905.048         905.177         905.400         905.620         905.813         905.938         906.011         906.050         906.219         906.398         906.594         906.804         907.022         907.237         907.435         907.599         907.713         907.763         907.739         907.635         907.452         906.971         905.991         904.665         903.245         901.833         900.448         900.234         900.545         900.901         900.794         899.658         898.404
967.498         965.317         963.691         962.190         960.325         958.757         958.388         959.248         961.047         963.097         964.732         967.341         972.214         977.297         980.758         982.556         983.195         983.028         982.285         981.212         980.012         979.351         979.192         979.298         979.535         979.818         980.116         980.390         980.643         980.748         979.399         978.104         977.070         976.325         975.852         975.615         975.578         975.950         976.481         976.991         977.415         977.763         978.050         978.298         978.516         978.715         978.898         979.071         979.264         979.511         979.645         979.779         979.899         980.019         980.114         980.209         980.267         980.325         980.336         980.347         980.305         980.263         980.168         980.073         979.930         979.787         979.607         979.426         979.220         979.015         978.797         978.579         978.362         978.145         977.938         977.732         977.544         977.357         977.193         977.029         976.893         976.756         976.648         976.540         976.447         976.355         976.270         976.185         976.162         976.138         976.139         976.140         976.163         976.186         976.229         976.273         976.334         976.396         976.474         976.552         976.645         976.739         976.846         976.953         977.073         977.193         977.325         977.457         977.600         977.743         977.899         978.058         978.221         978.390         978.562         978.740         978.924         979.113         979.306         979.503         979.704         979.908         980.115         980.326         980.539         980.754         980.971         981.191         981.411         981.634         981.856         982.080         982.304         982.528         982.751         982.974         983.195         983.415         983.633         983.849         984.063         984.273         984.480         984.683         984.883         985.078         985.268         985.454         985.634         985.809         985.979         986.142         986.299         986.449         986.593         986.836         987.079         987.297         987.448         987.546         987.614         987.813         988.022         988.244         988.477         988.715         988.947         989.158         989.334         989.460         989.526         989.527         989.464         989.341         988.851         987.823         986.398         984.848         983.289         981.754         981.514         981.863         982.263         982.144         980.865         979.454
1047.249        1044.825        1043.020        1041.353        1039.279        1037.518        1037.084        1038.031        1040.026        1042.295        1044.107        1047.025        1052.461        1058.096        1061.927        1063.921        1064.639        1064.457        1063.636        1062.452        1061.127        1060.382        1060.197        1060.313        1060.579        1060.895        1061.229        1061.536        1061.821        1061.937        1051.175        1045.422        1042.588        1041.370        1041.027        1041.176        1041.626        1043.047        1045.013        1047.096        1049.004        1050.646        1051.984        1053.067        1053.925        1054.624        1055.192        1056.065        1057.705        1060.550        1060.700        1060.849        1060.984        1061.118        1061.224        1061.330        1061.394        1061.459        1061.472        1061.485        1061.439        1061.393        1061.289        1061.184        1061.027        1060.870        1060.672        1060.473        1060.246        1060.019        1059.779        1059.539        1059.299        1059.060        1058.832        1058.604        1058.397        1058.190        1058.010        1057.830        1057.680        1057.531        1057.412        1057.294        1057.193        1057.092        1056.999        1056.905        1056.881        1056.858        1056.861        1056.865        1056.893        1056.921        1056.971        1057.021        1057.091        1057.160        1057.247        1057.335        1057.438        1057.541        1057.658        1057.775        1057.906        1058.036        1058.179        1058.321        1058.475        1058.629        1058.794        1058.963        1059.136        1059.314        1059.496        1059.684        1059.876        1060.074        1060.275        1060.480        1060.689        1060.901        1061.116        1061.335        1061.555        1061.779        1062.004        1062.232        1062.461        1062.691        1062.922        1063.155        1063.387        1063.621        1063.853        1064.086        1064.317        1064.547        1064.776        1065.003        1065.227        1065.449        1065.668        1065.884        1066.095        1066.303        1066.506        1066.704        1066.897        1067.085        1067.266        1067.441        1067.609        1067.770        1067.924        1068.177        1068.429        1068.654        1068.814        1068.926        1069.012        1069.222        1069.444        1069.681        1069.935        1070.201        1070.466        1070.718        1070.939        1071.114        1071.236        1071.299        1071.304        1071.254        1070.825        1069.677        1068.095        1066.395        1064.680        1063.060        1062.793        1063.181        1063.626        1063.493        1062.073        1060.505
1083.561        1080.462        1077.931        1075.726        1073.794        1072.645        1072.592        1073.591        1075.526        1077.957        1080.446        1083.760        1088.526        1093.496        1097.174        1099.250        1100.142        1100.177        1099.542        1098.591        1097.959        1097.996        1098.329        1098.766        1099.261        1099.719        1100.106        1100.730        1102.408        1102.529        1098.554        1095.782        1093.888        1092.668        1092.005        1091.788        1091.904        1092.724        1093.927        1095.155        1096.243        1097.157        1097.895        1098.489        1098.966        1099.358        1099.686        1100.018        1100.446        1101.069        1101.226        1101.384        1101.525        1101.666        1101.778        1101.889        1101.957        1102.026        1102.039        1102.053        1102.005        1101.957        1101.848        1101.739        1101.575        1101.410        1101.202        1100.994        1100.757        1100.519        1100.268        1100.016        1099.765        1099.514        1099.276        1099.037        1098.820        1098.603        1098.414        1098.226        1098.068        1097.911        1097.787        1097.663        1097.558        1097.453        1097.355        1097.258        1097.234        1097.210        1097.214        1097.218        1097.248        1097.278        1097.331        1097.384        1097.457        1097.530        1097.620        1097.711        1097.818        1097.925        1098.046        1098.167        1098.301        1098.435        1098.581        1098.727        1098.884        1099.041        1099.208        1099.379        1099.554        1099.734        1099.917        1100.107        1100.300        1100.497        1100.698        1100.904        1101.112        1101.324        1101.539        1101.757        1101.978        1102.202        1102.427        1102.656        1102.885        1103.117        1103.350        1103.584        1103.819        1104.055        1104.291        1104.527        1104.763        1104.998        1105.232        1105.465        1105.695        1105.924        1106.149        1106.372        1106.590        1106.805        1107.014        1107.219        1107.417        1107.609        1107.794        1107.972        1108.142        1108.303        1108.456        1108.701        1108.943        1109.155        1109.305        1109.413        1109.506        1109.708        1109.928        1110.173        1110.446        1110.743        1111.051        1111.354        1111.634        1111.873        1112.059        1112.179        1112.229        1112.484        1111.910        1110.583        1108.885        1107.083        1105.297        1103.713        1103.433        1103.840        1104.307        1104.168        1102.676        1101.030
1117.205        1113.649        1110.961        1108.631        1106.786        1105.826        1105.889        1106.903        1108.784        1111.323        1114.344        1118.106        1122.653        1127.192        1130.774        1133.046        1134.181        1134.434        1134.058        1133.475        1133.193        1133.374        1133.779        1134.305        1134.937        1135.732        1137.117        1139.497        1142.994        1143.121        1141.442        1140.272        1138.932        1137.655        1136.697        1136.145        1135.961        1136.488        1137.243        1137.926        1138.474        1138.933        1139.329        1139.688        1140.013        1140.314        1140.589        1140.847        1141.114        1141.588        1141.753        1141.918        1142.066        1142.214        1142.332        1142.448        1142.520        1142.592        1142.606        1142.621        1142.571        1142.521        1142.407        1142.293        1142.122        1141.950        1141.733        1141.515        1141.267        1141.019        1140.756        1140.494        1140.231        1139.969        1139.719        1139.469        1139.243        1139.016        1138.818        1138.621        1138.457        1138.292        1138.163        1138.033        1137.923        1137.813        1137.712        1137.611        1137.586        1137.562        1137.567        1137.572        1137.604        1137.636        1137.691        1137.746        1137.823        1137.899        1137.993        1138.088        1138.198        1138.309        1138.434        1138.559        1138.697        1138.834        1138.984        1139.133        1139.293        1139.453        1139.622        1139.795        1139.972        1140.154        1140.339        1140.529        1140.723        1140.921        1141.122        1141.327        1141.535        1141.747        1141.961        1142.180        1142.401        1142.625        1142.851        1143.080        1143.310        1143.543        1143.777        1144.014        1144.251        1144.490        1144.729        1144.969        1145.209        1145.449        1145.688        1145.927        1146.163        1146.398        1146.630        1146.860        1147.085        1147.307        1147.523        1147.733        1147.937        1148.133        1148.322        1148.503        1148.674        1148.836        1148.989        1149.226        1149.456        1149.655        1149.795        1149.901        1149.999        1150.193        1150.412        1150.665        1150.957        1151.285        1151.635        1151.990        1152.329        1152.632        1152.882        1153.059        1153.155        1153.714        1152.996        1151.490        1149.674        1147.770        1145.913        1144.366        1144.073        1144.499        1144.988        1144.842        1143.280        1141.555
1148.077        1144.415        1141.957        1139.680        1137.798        1136.752        1136.765        1137.788        1139.683        1142.302        1145.601        1149.688        1154.334        1158.808        1162.419        1164.863        1166.184        1166.588        1166.382        1165.978        1165.753        1165.838        1166.144        1166.599        1167.143        1168.183        1171.081        1176.933        1183.580        1183.714        1180.229        1177.923        1176.544        1175.563        1174.854        1174.443        1174.338        1175.008        1176.052        1177.050        1177.871        1178.548        1179.109        1179.590        1180.005        1180.370        1180.694        1180.993        1181.433        1182.106        1182.277        1182.448        1182.601        1182.754        1182.875        1182.996        1183.070        1183.144        1183.159        1183.173        1183.121        1183.069        1182.950        1182.832        1182.653        1182.475        1182.249        1182.023        1181.765        1181.507        1181.233        1180.959        1180.685        1180.411        1180.150        1179.889        1179.651        1179.412        1179.204        1178.995        1178.822        1178.648        1178.510        1178.372        1178.257        1178.141        1178.038        1177.934        1177.907        1177.881        1177.885        1177.890        1177.923        1177.956        1178.013        1178.071        1178.149        1178.228        1178.325        1178.422        1178.534        1178.647        1178.774        1178.900        1179.038        1179.177        1179.326        1179.474        1179.633        1179.791        1179.955        1180.123        1180.295        1180.472        1180.652        1180.835        1181.021        1181.211        1181.402        1181.598        1181.796        1181.999        1182.204        1182.413        1182.625        1182.840        1183.057        1183.278        1183.501        1183.727        1183.954        1184.185        1184.416        1184.650        1184.884        1185.120        1185.357        1185.594        1185.831        1186.068        1186.303        1186.537        1186.768        1186.997        1187.221        1187.442        1187.657        1187.866        1188.069        1188.263        1188.450        1188.628        1188.797        1188.955        1189.104        1189.324        1189.535        1189.719        1189.859        1189.982        1190.113        1190.321        1190.566        1190.859        1191.205        1191.600        1192.029        1192.473        1192.908        1193.309        1193.643        1193.878        1194.339        1194.959        1193.981        1192.287        1190.187        1188.210        1186.377        1185.019        1184.712        1185.158        1185.670        1185.517        1183.883        1182.080
1176.701        1173.179        1170.943        1168.695        1166.670        1165.415        1165.326        1166.384        1168.370        1171.064        1174.474        1178.765        1183.652        1188.315        1192.081        1194.673        1196.106        1196.578        1196.420        1196.026        1195.721        1195.660        1195.841        1196.161        1196.519        1197.500        1200.856        1208.988        1224.167        1224.306        1213.322        1208.755        1207.115        1206.463        1206.078        1205.849        1205.827        1206.603        1207.959        1209.448        1210.809        1212.003        1213.007        1213.852        1214.551        1215.147        1215.655        1216.662        1218.801        1222.624        1222.800        1222.977        1223.135        1223.293        1223.418        1223.543        1223.620        1223.696        1223.711        1223.726        1223.671        1223.617        1223.494        1223.370        1223.185        1222.999        1222.765        1222.530        1222.262        1221.994        1221.709        1221.425        1221.139        1220.854        1220.581        1220.308        1220.058        1219.808        1219.589        1219.370        1219.187        1219.003        1218.857        1218.712        1218.590        1218.469        1218.363        1218.258        1218.229        1218.200        1218.204        1218.208        1218.242        1218.276        1218.335        1218.395        1218.476        1218.557        1218.656        1218.755        1218.870        1218.985        1219.113        1219.241        1219.380        1219.519        1219.667        1219.816        1219.972        1220.129        1220.288        1220.451        1220.619        1220.790        1220.964        1221.142        1221.320        1221.500        1221.683        1221.869        1222.058        1222.251        1222.446        1222.646        1222.849        1223.055        1223.264        1223.477        1223.692        1223.911        1224.131        1224.355        1224.581        1224.810        1225.039        1225.272        1225.505        1225.739        1225.974        1226.209        1226.442        1226.675        1226.905        1227.133        1227.357        1227.577        1227.791        1227.999        1228.200        1228.393        1228.578        1228.753        1228.919        1229.074        1229.220        1229.423        1229.615        1229.784        1229.923        1230.064        1230.226        1230.449        1230.720        1231.052        1231.453        1231.915        1232.423        1232.956        1233.488        1233.985        1234.403        1234.696        1235.523        1236.205        1234.966        1233.084        1230.699        1228.650        1226.841        1225.672        1225.352        1225.817        1226.351        1226.192        1224.487        1222.606
1203.930        1200.344        1198.027        1195.683        1193.450        1191.966        1191.794        1192.932        1195.062        1197.848        1201.298        1205.725        1210.891        1215.856        1219.847        1222.574        1224.064        1224.538        1224.347        1223.881        1223.465        1223.285        1223.376        1223.629        1223.971        1224.936        1227.730        1233.834        1244.446        1244.590        1238.614        1235.392        1233.910        1233.249        1232.868        1232.619        1232.540        1233.098        1234.226        1235.436        1236.492        1237.387        1238.129        1238.750        1239.267        1239.709        1240.093        1240.593        1241.459        1242.873        1243.049        1243.226        1243.383        1243.541        1243.665        1243.789        1243.864        1243.939        1243.952        1243.965        1243.908        1243.852        1243.726        1243.600        1243.412        1243.223        1242.985        1242.747        1242.474        1242.202        1241.912        1241.622        1241.331        1241.039        1240.759        1240.480        1240.222        1239.965        1239.738        1239.512        1239.321        1239.130        1238.977        1238.825        1238.699        1238.573        1238.470        1238.366        1238.333        1238.301        1238.302        1238.304        1238.336        1238.369        1238.427        1238.485        1238.566        1238.646        1238.745        1238.844        1238.958        1239.072        1239.199        1239.325        1239.462        1239.599        1239.744        1239.889        1240.042        1240.194        1240.347        1240.504        1240.665        1240.829        1240.996        1241.165        1241.334        1241.504        1241.676        1241.851        1242.029        1242.210        1242.393        1242.580        1242.770        1242.963        1243.158        1243.357        1243.557        1243.761        1243.967        1244.175        1244.384        1244.596        1244.809        1245.025        1245.240        1245.457        1245.673        1245.890        1246.106        1246.322        1246.535        1246.747        1246.955        1247.161        1247.362        1247.559        1247.751        1247.937        1248.118        1248.293        1248.462        1248.624        1248.781        1248.984        1249.190        1249.394        1249.596        1249.813        1250.048        1250.348        1250.690        1251.084        1251.532        1252.029        1252.559        1253.106        1253.645        1254.149        1254.584        1254.925        1255.707        1256.423        1255.146        1253.038        1250.722        1248.751        1247.029        1245.999        1245.672        1246.147        1246.692        1246.529        1244.789        1242.868
1229.887        1226.027        1223.344        1220.775        1218.304        1216.628        1216.434        1217.696        1220.004        1222.903        1226.391        1230.937        1236.368        1241.643        1245.866        1248.711        1250.222        1250.660        1250.403        1249.851        1249.340        1249.081        1249.121        1249.371        1249.829        1250.879        1253.114        1257.241        1264.725        1264.873        1261.735        1259.808        1258.513        1257.685        1257.132        1256.764        1256.592        1257.009        1257.921        1258.805        1259.475        1259.996        1260.419        1260.789        1261.118        1261.423        1261.703        1262.006        1262.394        1263.122        1263.298        1263.475        1263.632        1263.789        1263.912        1264.035        1264.108        1264.182        1264.193        1264.204        1264.145        1264.087        1263.958        1263.830        1263.638        1263.447        1263.205        1262.964        1262.687        1262.410        1262.115        1261.820        1261.522        1261.225        1260.938        1260.651        1260.386        1260.122        1259.887        1259.653        1259.455        1259.256        1259.097        1258.938        1258.808        1258.678        1258.576        1258.475        1258.438        1258.402        1258.401        1258.400        1258.431        1258.461        1258.519        1258.576        1258.656        1258.736        1258.834        1258.933        1259.046        1259.159        1259.285        1259.410        1259.544        1259.679        1259.821        1259.963        1260.111        1260.259        1260.406        1260.556        1260.710        1260.868        1261.027        1261.188        1261.347        1261.508        1261.670        1261.834        1262.000        1262.169        1262.340        1262.515        1262.691        1262.871        1263.053        1263.237        1263.423        1263.612        1263.802        1263.995        1264.188        1264.383        1264.579        1264.777        1264.975        1265.174        1265.373        1265.572        1265.771        1265.968        1266.165        1266.360        1266.553        1266.744        1266.933        1267.119        1267.302        1267.481        1267.659        1267.833        1268.004        1268.174        1268.342        1268.545        1268.766        1269.005        1269.268        1269.562        1269.869        1270.247        1270.661        1271.116        1271.612        1272.142        1272.695        1273.256        1273.802        1274.313        1274.766        1275.154        1275.891        1276.642        1275.326        1272.993        1270.744        1268.851        1267.217        1266.325        1265.991        1266.477        1267.032        1266.866        1265.091        1263.131
1254.246        1250.172        1247.011        1244.128        1241.417        1239.617        1239.480        1240.913        1243.422        1246.460        1250.028        1254.712        1260.377        1265.915        1270.340        1273.281        1274.791        1275.186        1274.874        1274.263        1273.693        1273.387        1273.398        1273.661        1274.199        1275.216        1276.897        1279.617        1285.004        1285.157        1283.499        1282.335        1281.272        1280.376        1279.676        1279.178        1278.903        1279.174        1279.876        1280.503        1280.913        1281.208        1281.456        1281.698        1281.937        1282.178        1282.413        1282.651        1282.925        1283.370        1283.547        1283.724        1283.880        1284.036        1284.159        1284.281        1284.353        1284.425        1284.434        1284.443        1284.382        1284.321        1284.190        1284.059        1283.865        1283.671        1283.426        1283.180        1282.899        1282.618        1282.318        1282.018        1281.714        1281.410        1281.116        1280.823        1280.550        1280.278        1280.036        1279.794        1279.589        1279.383        1279.217        1279.051        1278.917        1278.783        1278.683        1278.583        1278.543        1278.503        1278.499        1278.496        1278.525        1278.554        1278.610        1278.667        1278.746        1278.825        1278.923        1279.021        1279.134        1279.246        1279.370        1279.494        1279.627        1279.759        1279.898        1280.037        1280.181        1280.324        1280.464        1280.609        1280.756        1280.906        1281.058        1281.210        1281.361        1281.512        1281.663        1281.816        1281.971        1282.128        1282.287        1282.449        1282.613        1282.779        1282.947        1283.117        1283.289        1283.463        1283.637        1283.814        1283.991        1284.170        1284.349        1284.530        1284.711        1284.892        1285.073        1285.254        1285.435        1285.615        1285.794        1285.973        1286.151        1286.328        1286.504        1286.678        1286.852        1287.026        1287.199        1287.372        1287.547        1287.723        1287.903        1288.107        1288.341        1288.615        1288.941        1289.311        1289.691        1290.146        1290.632        1291.149        1291.692        1292.256        1292.831        1293.406        1293.960        1294.477        1294.947        1295.383        1296.075        1296.861        1295.505        1292.947        1290.767        1288.952        1287.406        1286.652        1286.311        1286.806        1287.373        1287.204        1285.393        1283.394
1276.955        1272.753        1269.123        1265.890        1262.965        1261.119        1261.113        1262.757        1265.485        1268.694        1272.411        1277.277        1283.141        1288.881        1293.474        1296.494        1298.000        1298.379        1298.056        1297.434        1296.845        1296.518        1296.513        1296.782        1297.336        1298.238        1299.479        1301.312        1305.282        1305.440        1304.513        1303.744        1302.868        1301.987        1301.205        1300.601        1300.232        1300.368        1300.899        1301.356        1301.626        1301.819        1301.994        1302.184        1302.387        1302.599        1302.814        1303.034        1303.279        1303.619        1303.796        1303.973        1304.129        1304.284        1304.405        1304.526        1304.597        1304.668        1304.675        1304.682        1304.619        1304.556        1304.423        1304.289        1304.092        1303.895        1303.646        1303.397        1303.112        1302.826        1302.521        1302.215        1301.905        1301.595        1301.294        1300.994        1300.714        1300.435        1300.185        1299.936        1299.723        1299.510        1299.337        1299.164        1299.026        1298.888        1298.790        1298.692        1298.648        1298.604        1298.598        1298.592        1298.619        1298.646        1298.702        1298.757        1298.836        1298.915        1299.012        1299.110        1299.222        1299.333        1299.456        1299.578        1299.709        1299.839        1299.975        1300.110        1300.250        1300.390        1300.523        1300.661        1300.802        1300.945        1301.090        1301.233        1301.375        1301.516        1301.656        1301.798        1301.942        1302.087        1302.234        1302.383        1302.534        1302.687        1302.841        1302.998        1303.155        1303.313        1303.473        1303.634        1303.795        1303.957        1304.120        1304.283        1304.446        1304.609        1304.773        1304.936        1305.099        1305.262        1305.424        1305.587        1305.749        1305.911        1306.074        1306.238        1306.403        1306.570        1306.739        1306.912        1307.090        1307.273        1307.463        1307.668        1307.917        1308.226        1308.613        1309.059        1309.512        1310.045        1310.603        1311.181        1311.772        1312.370        1312.967        1313.556        1314.117        1314.641        1315.128        1315.612        1316.259        1317.080        1315.685        1312.901        1310.790        1309.053        1307.594        1306.978        1306.631        1307.135        1307.714        1307.541        1305.694        1303.656
1298.120        1293.802        1289.773        1286.214        1283.132        1281.316        1281.495        1283.371        1286.323        1289.741        1293.690        1298.789        1304.827        1310.715        1315.447        1318.549        1320.090        1320.514        1320.239        1319.656        1319.080        1318.751        1318.736        1319.001        1319.531        1320.303        1321.239        1322.545        1325.545        1325.709        1325.142        1324.568        1323.818        1322.977        1322.162        1321.489        1321.042        1321.068        1321.473        1321.821        1322.012        1322.149        1322.287        1322.448        1322.630        1322.827        1323.029        1323.235        1323.444        1323.684        1323.870        1324.056        1324.219        1324.381        1324.505        1324.628        1324.698        1324.767        1324.771        1324.774        1324.704        1324.635        1324.492        1324.350        1324.143        1323.935        1323.675        1323.415        1323.118        1322.820        1322.503        1322.186        1321.866        1321.547        1321.238        1320.930        1320.645        1320.360        1320.107        1319.854        1319.638        1319.422        1319.247        1319.071        1318.937        1318.802        1318.721        1318.639        1318.587        1318.535        1318.521        1318.506        1318.523        1318.541        1318.587        1318.633        1318.702        1318.771        1318.859        1318.947        1319.032        1319.118        1319.221        1319.324        1319.438        1319.553        1319.675        1319.797        1319.924        1320.051        1320.170        1320.293        1320.419        1320.547        1320.677        1320.804        1320.927        1321.049        1321.168        1321.288        1321.408        1321.529        1321.650        1321.773        1321.895        1322.019        1322.142        1322.266        1322.390        1322.514        1322.638        1322.762        1322.885        1323.009        1323.132        1323.255        1323.379        1323.504        1323.628        1323.755        1323.882        1324.012        1324.144        1324.279        1324.418        1324.561        1324.710        1324.865        1325.028        1325.199        1325.380        1325.573        1325.777        1325.995        1326.227        1326.503        1326.843        1327.260        1327.763        1328.329        1328.901        1329.587        1330.278        1330.963        1331.632        1332.277        1332.890        1333.462        1333.976        1334.441        1334.888        1335.366        1335.826        1336.486        1335.247        1332.709        1330.836        1329.267        1327.875        1327.305        1326.951        1327.465        1328.054        1327.878        1325.996        1323.919
1317.905        1313.392        1309.062        1305.257        1302.109        1300.398        1300.790        1302.895        1306.060        1309.720        1313.984        1319.366        1325.558        1331.551        1336.402        1339.620        1341.286        1341.853        1341.687        1341.177        1340.638        1340.315        1340.294        1340.550        1341.044        1341.705        1342.451        1343.449        1345.808        1345.978        1345.581        1345.091        1344.412        1343.609        1342.786        1342.065        1341.556        1341.490        1341.805        1342.084        1342.226        1342.328        1342.440        1342.583        1342.752        1342.940        1343.138        1343.337        1343.530        1343.748        1343.944        1344.140        1344.309        1344.478        1344.604        1344.730        1344.798        1344.867        1344.866        1344.865        1344.789        1344.713        1344.562        1344.412        1344.194        1343.976        1343.704        1343.433        1343.123        1342.814        1342.486        1342.157        1341.828        1341.498        1341.182        1340.866        1340.576        1340.286        1340.029        1339.772        1339.554        1339.335        1339.157        1338.978        1338.847        1338.716        1338.651        1338.587        1338.527        1338.467        1338.443        1338.420        1338.428        1338.437        1338.473        1338.509        1338.568        1338.628        1338.706        1338.784        1338.843        1338.902        1338.985        1339.069        1339.168        1339.267        1339.376        1339.484        1339.599        1339.713        1339.816        1339.924        1340.036        1340.149        1340.264        1340.374        1340.480        1340.582        1340.681        1340.778        1340.875        1340.971        1341.066        1341.162        1341.256        1341.350        1341.443        1341.535        1341.625        1341.715        1341.802        1341.889        1341.975        1342.060        1342.144        1342.228        1342.312        1342.398        1342.484        1342.573        1342.665        1342.762        1342.863        1342.971        1343.086        1343.211        1343.345        1343.493        1343.653        1343.829        1344.021        1344.233        1344.464        1344.717        1344.991        1345.338        1345.770        1346.293        1346.912        1347.599        1348.291        1349.128        1349.953        1350.746        1351.493        1352.185        1352.813        1353.367        1353.835        1354.242        1354.648        1355.121        1355.392        1355.892        1354.808        1352.517        1350.882        1349.482        1348.156        1347.631        1347.271        1347.795        1348.395        1348.216        1346.298        1344.181
1336.475        1331.622        1327.105        1323.172        1320.077        1318.544        1319.159        1321.468        1324.820        1328.745        1333.386        1339.095        1345.440        1351.495        1356.444        1359.829        1361.750        1362.582        1362.587        1362.175        1361.682        1361.373        1361.352        1361.600        1362.064        1362.654        1363.293        1364.120        1366.071        1366.247        1365.916        1365.452        1364.812        1364.038        1363.210        1362.445        1361.866        1361.703        1361.926        1362.144        1362.249        1362.329        1362.428        1362.566        1362.733        1362.924        1363.127        1363.333        1363.560        1363.813        1364.019        1364.224        1364.399        1364.574        1364.703        1364.831        1364.899        1364.966        1364.961        1364.957        1364.874        1364.791        1364.632        1364.473        1364.245        1364.017        1363.734        1363.451        1363.129        1362.808        1362.468        1362.128        1361.789        1361.449        1361.126        1360.803        1360.507        1360.211        1359.951        1359.691        1359.469        1359.248        1359.067        1358.885        1358.758        1358.631        1358.582        1358.534        1358.467        1358.399        1358.366        1358.334        1358.333        1358.332        1358.358        1358.385        1358.434        1358.484        1358.553        1358.622        1358.654        1358.686        1358.750        1358.814        1358.897        1358.981        1359.076        1359.171        1359.273        1359.375        1359.462        1359.556        1359.653        1359.751        1359.851        1359.945        1360.032        1360.115        1360.193        1360.268        1360.341        1360.413        1360.483        1360.551        1360.618        1360.682        1360.744        1360.804        1360.861        1360.916        1360.967        1361.017        1361.065        1361.111        1361.156        1361.201        1361.245        1361.292        1361.340        1361.392        1361.448        1361.512        1361.582        1361.663        1361.755        1361.861        1361.981        1362.120        1362.278        1362.459        1362.662        1362.893        1363.150        1363.438        1363.754        1364.173        1364.696        1365.327        1366.062        1366.868        1367.680        1368.670        1369.628        1370.528        1371.353        1372.092        1372.735        1373.272        1373.694        1374.042        1374.407        1374.875        1374.959        1375.298        1374.370        1372.326        1370.928        1369.696        1368.437        1367.958        1367.591        1368.124        1368.735        1368.553        1366.600        1364.444
1353.971        1348.613        1344.027        1340.103        1337.188        1335.901        1336.745        1339.224        1342.728        1346.916        1351.965        1358.042        1364.554        1370.643        1375.661        1379.262        1381.565        1382.779        1383.013        1382.717        1382.274        1381.987        1381.977        1382.230        1382.684        1383.255        1383.862        1384.623        1386.334        1386.516        1386.166        1385.714        1385.087        1384.323        1383.482        1382.672        1382.015        1381.733        1381.834        1381.966        1382.015        1382.058        1382.136        1382.263        1382.429        1382.625        1382.841        1383.095        1383.427        1383.878        1384.093        1384.308        1384.489        1384.671        1384.802        1384.933        1385.000        1385.066        1385.057        1385.048        1384.959        1384.870        1384.702        1384.534        1384.296        1384.058        1383.763        1383.468        1383.135        1382.802        1382.451        1382.099        1381.750        1381.401        1381.070        1380.739        1380.438        1380.137        1379.873        1379.609        1379.385        1379.160        1378.976        1378.792        1378.669        1378.545        1378.513        1378.482        1378.406        1378.331        1378.289        1378.248        1378.238        1378.227        1378.244        1378.260        1378.300        1378.340        1378.400        1378.459        1378.465        1378.471        1378.515        1378.559        1378.627        1378.695        1378.776        1378.858        1378.948        1379.037        1379.109        1379.187        1379.269        1379.353        1379.438        1379.516        1379.585        1379.648        1379.705        1379.758        1379.808        1379.855        1379.899        1379.940        1379.979        1380.014        1380.045        1380.073        1380.096        1380.116        1380.132        1380.145        1380.155        1380.162        1380.168        1380.173        1380.178        1380.186        1380.196        1380.211        1380.232        1380.262        1380.302        1380.355        1380.423        1380.510        1380.616        1380.747        1380.903        1381.088        1381.303        1381.553        1381.837        1382.160        1382.518        1383.008        1383.622        1384.361        1385.211        1386.138        1387.069        1388.212        1389.303        1390.311        1391.214        1392.000        1392.658        1393.177        1393.553        1393.843        1394.167        1394.630        1394.526        1394.704        1393.931        1392.134        1390.974        1389.911        1388.719        1388.284        1387.910        1388.454        1389.076        1388.890        1386.902        1384.707
1370.509        1364.499        1359.962        1356.176        1353.561        1352.585        1353.662        1356.280        1359.901        1364.328        1369.778        1376.248        1382.966        1389.086        1394.154        1398.008        1400.788        1402.479        1402.992        1402.820        1402.424        1402.161        1402.176        1402.454        1402.926        1403.518        1404.160        1404.950        1406.484        1406.665        1406.371        1405.962        1405.333        1404.552        1403.688        1402.834        1402.095        1401.679        1401.630        1401.631        1401.582        1401.553        1401.579        1401.671        1401.817        1402.006        1402.225        1402.471        1402.745        1403.043        1403.294        1403.546        1403.762        1403.978        1404.136        1404.294        1404.375        1404.456        1404.447        1404.438        1404.334        1404.229        1404.034        1403.838        1403.563        1403.288        1402.953        1402.618        1402.249        1401.880        1401.502        1401.124        1400.761        1400.397        1400.065        1399.733        1399.443        1399.153        1398.908        1398.664        1398.464        1398.264        1398.104        1397.945        1397.862        1397.780        1397.812        1397.844        1397.773        1397.702        1397.656        1397.611        1397.589        1397.567        1397.566        1397.565        1397.583        1397.601        1397.635        1397.670        1397.637        1397.604        1397.612        1397.619        1397.654        1397.689        1397.742        1397.795        1397.858        1397.921        1397.963        1398.015        1398.071        1398.131        1398.192        1398.244        1398.287        1398.320        1398.347        1398.369        1398.387        1398.401        1398.412        1398.420        1398.425        1398.425        1398.422        1398.414        1398.401        1398.385        1398.364        1398.340        1398.314        1398.285        1398.255        1398.226        1398.199        1398.175        1398.156        1398.145        1398.142        1398.152        1398.176        1398.218        1398.279        1398.365        1398.475        1398.617        1398.789        1399.000        1399.245        1399.536        1399.865        1400.242        1400.660        1401.296        1402.066        1402.957        1403.932        1404.978        1406.049        1407.412        1408.710        1409.890        1410.914        1411.750        1412.374        1412.777        1412.978        1413.069        1413.204        1413.499        1413.363        1413.440        1412.791        1411.580        1410.909        1409.968        1408.721        1408.611        1408.230        1408.783        1409.417        1409.228        1407.203        1404.969
1386.185        1379.427        1375.037        1371.499        1369.286        1368.678        1369.997        1372.735        1376.440        1381.063        1386.873        1393.744        1400.723        1406.911        1412.041        1416.177        1419.491        1421.723        1422.547        1422.503        1422.148        1421.914        1421.970        1422.291        1422.799        1423.417        1424.129        1425.052        1426.634        1426.814        1426.418        1426.017        1425.400        1424.614        1423.732        1422.847        1422.032        1421.484        1421.279        1421.146        1420.990        1420.881        1420.849        1420.902        1421.025        1421.205        1421.426        1421.670        1421.914        1422.208        1422.496        1422.784        1423.035        1423.286        1423.471        1423.656        1423.751        1423.846        1423.837        1423.828        1423.708        1423.589        1423.365        1423.141        1422.829        1422.517        1422.143        1421.768        1421.363        1420.958        1420.554        1420.149        1419.772        1419.394        1419.061        1418.728        1418.448        1418.169        1417.944        1417.719        1417.543        1417.367        1417.233        1417.098        1417.056        1417.014        1417.111        1417.207        1417.140        1417.073        1417.023        1416.974        1416.940        1416.907        1416.888        1416.870        1416.865        1416.861        1416.871        1416.881        1416.809        1416.737        1416.708        1416.680        1416.682        1416.684        1416.708        1416.731        1416.768        1416.805        1416.818        1416.842        1416.873        1416.909        1416.946        1416.973        1416.988        1416.993        1416.990        1416.980        1416.966        1416.948        1416.926        1416.901        1416.871        1416.837        1416.798        1416.755        1416.706        1416.653        1416.596        1416.536        1416.472        1416.408        1416.343        1416.280        1416.219        1416.164        1416.116        1416.079        1416.052        1416.043        1416.050        1416.081        1416.135        1416.220        1416.334        1416.487        1416.676        1416.911        1417.188        1417.518        1417.893        1418.324        1418.803        1419.584        1420.509        1421.552        1422.653        1423.817        1425.030        1426.613        1428.117        1429.469        1430.615        1431.499        1432.089        1432.377        1432.404        1432.295        1432.241        1432.369        1432.201        1432.177        1431.651        1431.026        1430.845        1430.024        1428.724        1428.937        1428.550        1429.113        1429.757        1429.565        1427.505        1425.232
1401.091        1393.541        1389.369        1386.161        1384.427        1384.235        1385.814        1388.666        1392.429        1397.195        1403.298        1410.558        1417.862        1424.186        1429.420        1433.857        1437.724        1440.525        1441.675        1441.760        1441.444        1441.251        1441.372        1441.760        1442.310        1442.941        1443.706        1444.851        1446.784        1446.963        1446.156        1445.635        1445.052        1444.304        1443.434        1442.535        1441.649        1440.969        1440.607        1440.341        1440.087        1439.909        1439.830        1439.855        1439.966        1440.146        1440.379        1440.646        1440.981        1441.373        1441.697        1442.022        1442.308        1442.594        1442.805        1443.017        1443.127        1443.236        1443.227        1443.218        1443.083        1442.949        1442.697        1442.445        1442.096        1441.746        1441.332        1440.918        1440.477        1440.036        1439.605        1439.174        1438.782        1438.390        1438.056        1437.722        1437.454        1437.185        1436.979        1436.774        1436.622        1436.470        1436.361        1436.251        1436.250        1436.249        1436.410        1436.570        1436.507        1436.444        1436.390        1436.337        1436.292        1436.247        1436.211        1436.174        1436.148        1436.122        1436.107        1436.092        1435.981        1435.870        1435.805        1435.740        1435.710        1435.679        1435.674        1435.668        1435.679        1435.690        1435.672        1435.669        1435.675        1435.686        1435.700        1435.702        1435.690        1435.666        1435.632        1435.591        1435.545        1435.494        1435.440        1435.380        1435.317        1435.248        1435.175        1435.095        1435.011        1434.922        1434.828        1434.731        1434.631        1434.531        1434.430        1434.333        1434.239        1434.154        1434.076        1434.013        1433.963        1433.934        1433.924        1433.944        1433.990        1434.074        1434.192        1434.357        1434.562        1434.823        1435.130        1435.500        1435.921        1436.406        1436.945        1437.872        1438.953        1440.148        1441.374        1442.657        1444.010        1445.814        1447.524        1449.047        1450.315        1451.248        1451.805        1451.977        1451.829        1451.521        1451.277        1451.238        1451.038        1450.913        1450.510        1450.472        1450.780        1450.081        1448.726        1449.264        1448.870        1449.442        1450.098        1449.902        1447.807        1445.494
1415.323        1406.977        1403.057        1400.234        1399.031        1399.294        1401.157        1404.129        1407.932        1412.786        1419.105        1426.725        1434.415        1440.963        1446.353        1451.093        1455.492        1458.855        1460.329        1460.533        1460.256        1460.122        1460.334        1460.815        1461.425        1462.088        1462.875        1464.164        1466.934        1467.113        1465.610        1464.892        1464.286        1463.564        1462.719        1461.812        1460.853        1460.021        1459.480        1459.071        1458.705        1458.441        1458.297        1458.274        1458.353        1458.518        1458.749        1459.098        1459.660        1460.538        1460.899        1461.260        1461.581        1461.902        1462.140        1462.378        1462.502        1462.627        1462.617        1462.608        1462.458        1462.309        1462.028        1461.748        1461.362        1460.976        1460.522        1460.068        1459.591        1459.115        1458.657        1458.199        1457.793        1457.387        1457.052        1456.717        1456.459        1456.201        1456.015        1455.828        1455.701        1455.573        1455.489        1455.404        1455.444        1455.484        1455.709        1455.933        1455.874        1455.815        1455.757        1455.700        1455.643        1455.587        1455.533        1455.479        1455.431        1455.382        1455.343        1455.303        1455.153        1455.003        1454.902        1454.801        1454.738        1454.674        1454.639        1454.604        1454.589        1454.574        1454.527        1454.497        1454.477        1454.464        1454.454        1454.431        1454.391        1454.339        1454.274        1454.202        1454.124        1454.041        1453.953        1453.861        1453.763        1453.660        1453.551        1453.436        1453.316        1453.190        1453.060        1452.926        1452.790        1452.653        1452.517        1452.386        1452.259        1452.143        1452.036        1451.947        1451.873        1451.824        1451.798        1451.807        1451.846        1451.929        1452.051        1452.227        1452.449        1452.734        1453.073        1453.482        1453.949        1454.489        1455.087        1456.160        1457.397        1458.744        1460.094        1461.497        1462.990        1465.015        1466.931        1468.626        1470.015        1470.998        1471.520        1471.578        1471.255        1470.747        1470.314        1470.107        1469.875        1469.649        1469.370        1469.919        1470.716        1470.138        1468.729        1469.590        1469.190        1469.772        1470.439        1470.240        1468.109        1465.757
1429.005        1419.853        1416.178        1413.771        1413.131        1413.882        1416.057        1419.163        1422.995        1427.885        1434.344        1442.286        1450.417        1457.285        1462.892        1467.925        1472.795        1476.683        1478.463        1478.771        1478.530        1478.464        1478.787        1479.378        1480.076        1480.810        1481.647        1482.906        1485.248        1485.433        1484.655        1484.033        1483.375        1482.621        1481.775        1480.846        1479.791        1478.781        1478.040        1477.451        1476.938        1476.553        1476.310        1476.207        1476.223        1476.342        1476.541        1476.834        1477.256        1477.825        1478.190        1478.555        1478.889        1479.224        1479.478        1479.732        1479.865        1479.999        1479.986        1479.974        1479.807        1479.639        1479.329        1479.020        1478.599        1478.179        1477.696        1477.213        1476.716        1476.219        1475.752        1475.284        1474.880        1474.475        1474.151        1473.828        1473.591        1473.354        1473.198        1473.042        1472.953        1472.864        1472.823        1472.782        1472.882        1472.981        1473.282        1473.583        1473.564        1473.544        1473.517        1473.490        1473.453        1473.417        1473.371        1473.326        1473.275        1473.224        1473.172        1473.121        1472.936        1472.752        1472.615        1472.479        1472.381        1472.283        1472.213        1472.144        1472.095        1472.046        1471.963        1471.898        1471.846        1471.802        1471.763        1471.712        1471.645        1471.565        1471.475        1471.379        1471.279        1471.176        1471.071        1470.964        1470.855        1470.742        1470.626        1470.507        1470.384        1470.258        1470.129        1470.000        1469.870        1469.743        1469.618        1469.500        1469.389        1469.291        1469.203        1469.136        1469.087        1469.065        1469.068        1469.109        1469.181        1469.302        1469.462        1469.681        1469.948        1470.282        1470.670        1471.134        1471.658        1472.258        1472.918        1474.155        1475.557        1477.056        1478.491        1479.932        1481.454        1483.621        1485.639        1487.403        1488.776        1489.680        1490.062        1489.937        1489.424        1488.763        1488.219        1487.901        1487.570        1487.284        1487.148        1488.093        1488.842        1488.179        1487.472        1489.917        1489.510        1490.101        1490.779        1490.577        1488.411        1486.020
1442.304        1432.261        1428.789        1426.820        1426.760        1428.019        1430.536        1433.793        1437.645        1442.528        1449.056        1457.285        1465.912        1473.198        1479.090        1484.401        1489.669        1494.017        1496.075        1496.471        1496.262        1496.272        1496.713        1497.421        1498.208        1499.006        1499.920        1501.274        1503.561        1503.753        1503.089        1502.645        1502.017        1501.245        1500.391        1499.435        1498.294        1497.141        1496.241        1495.506        1494.865        1494.375        1494.045        1493.871        1493.830        1493.903        1494.069        1494.316        1494.636        1495.112        1495.481        1495.850        1496.198        1496.546        1496.816        1497.085        1497.228        1497.371        1497.356        1497.340        1497.155        1496.970        1496.630        1496.291        1495.837        1495.382        1494.870        1494.357        1493.840        1493.323        1492.846        1492.370        1491.966        1491.563        1491.250        1490.938        1490.723        1490.507        1490.382        1490.256        1490.205        1490.155        1490.157        1490.160        1490.319        1490.478        1490.856        1491.233        1491.253        1491.273        1491.277        1491.281        1491.264        1491.247        1491.209        1491.172        1491.119        1491.066        1491.002        1490.939        1490.719        1490.500        1490.329        1490.158        1490.025        1489.891        1489.787        1489.683        1489.601        1489.518        1489.398        1489.300        1489.215        1489.141        1489.073        1488.994        1488.898        1488.791        1488.675        1488.555        1488.433        1488.311        1488.189        1488.068        1487.946        1487.824        1487.701        1487.577        1487.451        1487.326        1487.199        1487.075        1486.951        1486.833        1486.719        1486.615        1486.519        1486.438        1486.371        1486.326        1486.300        1486.306        1486.337        1486.410        1486.516        1486.674        1486.874        1487.136        1487.447        1487.829        1488.267        1488.786        1489.367        1490.028        1490.749        1492.150        1493.718        1495.368        1496.887        1498.367        1499.918        1502.227        1504.346        1506.179        1507.537        1508.362        1508.603        1508.296        1507.594        1506.780        1506.124        1505.695        1505.266        1504.920        1504.927        1506.268        1506.969        1506.220        1506.215        1510.243        1509.829        1510.431        1511.120        1510.914        1508.713        1506.282
1455.374        1444.263        1440.937        1439.416        1439.942        1441.723        1444.607        1448.036        1451.902        1456.739        1463.278        1471.764        1480.943        1488.743        1494.993        1500.578        1506.167        1510.892        1513.190        1513.665        1513.494        1513.586        1514.145        1514.964        1515.820        1516.623        1517.543        1519.118        1521.875        1522.073        1520.799        1520.287        1519.756        1519.034        1518.197        1517.242        1516.070        1514.853        1513.870        1513.055        1512.351        1511.807        1511.432        1511.216        1511.135        1511.173        1511.308        1511.531        1511.893        1512.400        1512.772        1513.145        1513.507        1513.869        1514.153        1514.438        1514.591        1514.744        1514.725        1514.706        1514.503        1514.301        1513.931        1513.562        1513.074        1512.585        1512.043        1511.501        1510.964        1510.427        1509.941        1509.455        1509.053        1508.651        1508.350        1508.049        1507.854        1507.660        1507.565        1507.470        1507.458        1507.445        1507.492        1507.538        1507.757        1507.975        1508.429        1508.883        1508.943        1509.003        1509.037        1509.071        1509.074        1509.076        1509.048        1509.019        1508.963        1508.908        1508.832        1508.756        1508.502        1508.248        1508.042        1507.836        1507.668        1507.500        1507.361        1507.223        1507.107        1506.991        1506.834        1506.701        1506.584        1506.480        1506.383        1506.275        1506.151        1506.017        1505.875        1505.731        1505.587        1505.446        1505.307        1505.172        1505.038        1504.906        1504.776        1504.647        1504.519        1504.393        1504.269        1504.149        1504.032        1503.923        1503.820        1503.729        1503.648        1503.586        1503.538        1503.516        1503.514        1503.547        1503.607        1503.712        1503.851        1504.047        1504.286        1504.591        1504.946        1505.377        1505.865        1506.439        1507.076        1507.797        1508.580        1510.145        1511.879        1513.680        1515.284        1516.802        1518.383        1520.833        1523.054        1524.955        1526.298        1527.045        1527.144        1526.655        1525.764        1524.796        1524.028        1523.490        1522.961        1522.556        1522.706        1524.443        1525.095        1524.260        1524.959        1530.570        1530.149        1530.760        1531.461        1531.251        1529.014        1526.545
1468.260        1455.894        1452.657        1451.594        1452.704        1455.011        1458.280        1461.900        1465.778        1470.536        1477.035        1485.760        1495.552        1503.958        1510.630        1516.501        1522.342        1527.350        1529.841        1530.393        1530.274        1530.456        1531.129        1532.046        1532.950        1533.725        1534.546        1536.149        1540.189        1540.393        1537.980        1537.190        1536.672        1535.998        1535.188        1534.252        1533.098        1531.873        1530.855        1530.017        1529.293        1528.730        1528.327        1528.074        1527.949        1527.939        1528.024        1528.265        1528.775        1529.687        1530.063        1530.440        1530.815        1531.191        1531.491        1531.792        1531.954        1532.116        1532.094        1532.073        1531.852        1531.631        1531.232        1530.834        1530.311        1529.789        1529.217        1528.645        1528.088        1527.531        1527.036        1526.541        1526.140        1525.739        1525.449        1525.159        1524.986        1524.813        1524.748        1524.684        1524.710        1524.736        1524.826        1524.916        1525.194        1525.473        1526.003        1526.534        1526.633        1526.732        1526.797        1526.861        1526.884        1526.906        1526.886        1526.866        1526.808        1526.750        1526.662        1526.574        1526.286        1525.997        1525.756        1525.515        1525.312        1525.108        1524.935        1524.762        1524.613        1524.463        1524.270        1524.103        1523.954        1523.818        1523.693        1523.557        1523.405        1523.243        1523.075        1522.908        1522.742        1522.581        1522.425        1522.275        1522.129        1521.988        1521.851        1521.717        1521.587        1521.461        1521.339        1521.224        1521.113        1521.013        1520.921        1520.844        1520.778        1520.734        1520.705        1520.706        1520.728        1520.788        1520.876        1521.013        1521.187        1521.420        1521.697        1522.045        1522.445        1522.925        1523.462        1524.091        1524.785        1525.567        1526.410        1528.139        1530.039        1531.992        1533.680        1535.237        1536.847        1539.439        1541.762        1543.732        1545.059        1545.727        1545.685        1545.014        1543.934        1542.812        1541.933        1541.284        1540.656        1540.192        1540.485        1542.618        1543.222        1542.301        1543.702        1550.896        1550.469        1551.090        1551.801        1551.589        1549.316        1546.807
1480.949        1467.183        1463.982        1463.384        1465.074        1467.901        1471.564        1475.390        1479.280        1483.932        1490.347        1499.296        1509.773        1518.875        1526.024        1532.201        1538.233        1543.432        1546.068        1546.700        1546.656        1546.935        1547.711        1548.711        1549.653        1550.409        1551.108        1552.395        1555.566        1555.723        1554.479        1553.704        1553.107        1552.413        1551.607        1550.694        1549.585        1548.400        1547.407        1546.577        1545.845        1545.260        1544.820        1544.517        1544.329        1544.248        1544.258        1544.389        1544.693        1545.198        1545.488        1545.778        1546.077        1546.377        1546.610        1546.843        1546.949        1547.054        1546.998        1546.941        1546.719        1546.497        1546.135        1545.773        1545.323        1544.872        1544.380        1543.889        1543.401        1542.914        1542.470        1542.026        1541.655        1541.284        1541.009        1540.734        1540.566        1540.398        1540.336        1540.274        1540.304        1540.334        1540.432        1540.531        1540.810        1541.088        1541.606        1542.124        1542.248        1542.371        1542.459        1542.547        1542.591        1542.634        1542.631        1542.627        1542.581        1542.535        1542.454        1542.372        1542.075        1541.778        1541.528        1541.277        1541.065        1540.852        1540.670        1540.489        1540.332        1540.176        1539.977        1539.807        1539.659        1539.528        1539.409        1539.285        1539.148        1539.005        1538.859        1538.718        1538.582        1538.457        1538.339        1538.232        1538.132        1538.042        1537.956        1537.879        1537.806        1537.742        1537.682        1537.631        1537.585        1537.553        1537.527        1537.518        1537.520        1537.544        1537.581        1537.649        1537.735        1537.858        1538.007        1538.203        1538.431        1538.718        1539.043        1539.436        1539.875        1540.392        1540.962        1541.633        1542.372        1543.196        1544.075        1545.893        1547.860        1549.841        1551.471        1552.883        1554.277        1556.701        1558.878        1560.568        1561.730        1562.287        1562.198        1561.520        1560.486        1559.447        1558.633        1557.985        1557.305        1556.752        1556.904        1558.702        1559.062        1558.059        1559.144        1564.957        1564.432        1564.846        1565.391        1565.068        1562.987        1560.709
1493.438        1478.156        1474.940        1474.813        1477.078        1480.411        1484.463        1488.508        1492.415        1496.939        1503.228        1512.390        1523.631        1533.525        1541.198        1547.692        1553.872        1559.181        1561.917        1562.635        1562.689        1563.073        1563.940        1565.001        1565.971        1566.712        1567.317        1568.336        1570.943        1571.053        1570.362        1569.725        1569.062        1568.318        1567.502        1566.605        1565.566        1564.489        1563.604        1562.838        1562.125        1561.530        1561.059        1560.707        1560.457        1560.302        1560.232        1560.256        1560.386        1560.708        1560.912        1561.115        1561.339        1561.564        1561.729        1561.895        1561.943        1561.992        1561.901        1561.810        1561.586        1561.362        1561.038        1560.713        1560.334        1559.955        1559.544        1559.133        1558.715        1558.297        1557.904        1557.510        1557.170        1556.829        1556.569        1556.309        1556.146        1555.984        1555.924        1555.864        1555.898        1555.932        1556.039        1556.145        1556.425        1556.704        1557.209        1557.714        1557.863        1558.011        1558.122        1558.234        1558.297        1558.361        1558.375        1558.389        1558.355        1558.321        1558.246        1558.171        1557.865        1557.559        1557.300        1557.040        1556.818        1556.596        1556.406        1556.215        1556.052        1555.889        1555.684        1555.512        1555.364        1555.237        1555.126        1555.013        1554.891        1554.767        1554.643        1554.528        1554.423        1554.332        1554.253        1554.189        1554.135        1554.095        1554.062        1554.041        1554.026        1554.023        1554.025        1554.039        1554.058        1554.093        1554.133        1554.193        1554.261        1554.353        1554.457        1554.591        1554.741        1554.929        1555.138        1555.393        1555.676        1556.015        1556.389        1556.827        1557.305        1557.860        1558.461        1559.175        1559.960        1560.826        1561.739        1563.648        1565.680        1567.691        1569.262        1570.528        1571.707        1573.964        1575.995        1577.405        1578.402        1578.847        1578.712        1578.025        1577.038        1576.082        1575.334        1574.686        1573.954        1573.313        1573.323        1574.786        1574.902        1573.816        1574.586        1579.018        1578.394        1578.603        1578.981        1578.547        1576.657        1574.611
1505.734        1488.842        1485.557        1485.909        1488.742        1492.558        1496.983        1501.256        1505.190        1509.572        1515.693        1525.048        1537.136        1547.933        1556.171        1562.980        1569.276        1574.634        1577.432        1578.245        1578.420        1578.916        1579.859        1580.958        1581.935        1582.644        1583.166        1584.021        1586.320        1586.383        1585.768        1585.174        1584.506        1583.736        1582.900        1581.999        1581.044        1580.138        1579.437        1578.796        1578.146        1577.572        1577.089        1576.699        1576.392        1576.164        1576.010        1575.923        1575.966        1576.219        1576.336        1576.453        1576.602        1576.750        1576.848        1576.947        1576.938        1576.929        1576.804        1576.679        1576.453        1576.228        1575.940        1575.653        1575.346        1575.039        1574.708        1574.377        1574.029        1573.681        1573.338        1572.995        1572.685        1572.374        1572.129        1571.884        1571.727        1571.570        1571.512        1571.454        1571.492        1571.530        1571.645        1571.760        1572.040        1572.320        1572.812        1573.304        1573.477        1573.651        1573.785        1573.920        1574.004        1574.089        1574.120        1574.151        1574.129        1574.106        1574.038        1573.969        1573.654        1573.340        1573.072        1572.803        1572.572        1572.340        1572.141        1571.941        1571.771        1571.602        1571.391        1571.216        1571.069        1570.946        1570.843        1570.742        1570.634        1570.528        1570.426        1570.338        1570.263        1570.207        1570.167        1570.146        1570.138        1570.148        1570.168        1570.203        1570.246        1570.304        1570.368        1570.447        1570.531        1570.632        1570.740        1570.868        1571.003        1571.163        1571.333        1571.534        1571.748        1571.999        1572.268        1572.583        1572.921        1573.313        1573.735        1574.218        1574.736        1575.328        1575.960        1576.716        1577.547        1578.455        1579.403        1581.402        1583.500        1585.541        1587.052        1588.174        1589.136        1591.226        1593.111        1594.241        1595.073        1595.407        1595.225        1594.531        1593.589        1592.717        1592.035        1591.388        1590.602        1589.874        1589.742        1590.871        1590.742        1589.573        1590.028        1593.079        1592.357        1592.359        1592.571        1592.026        1590.328        1588.512
1517.846        1499.268        1495.859        1496.697        1500.092        1504.359        1509.130        1513.633        1517.610        1521.844        1527.759        1537.275        1550.282        1562.112        1570.954        1578.066        1584.453        1589.820        1592.654        1593.573        1593.889        1594.498        1595.502        1596.616        1597.576        1598.245        1598.716        1599.486        1601.697        1601.714        1600.739        1600.165        1599.526        1598.750        1597.885        1596.975        1596.122        1595.424        1594.950        1594.484        1593.943        1593.422        1592.950        1592.533        1592.170        1591.864        1591.616        1591.458        1591.468        1591.729        1591.760        1591.791        1591.864        1591.936        1591.968        1591.999        1591.933        1591.867        1591.707        1591.547        1591.320        1591.094        1590.843        1590.593        1590.357        1590.122        1589.871        1589.621        1589.342        1589.064        1588.772        1588.480        1588.200        1587.919        1587.689        1587.459        1587.307        1587.155        1587.099        1587.044        1587.086        1587.128        1587.251        1587.375        1587.655        1587.936        1588.415        1588.895        1589.092        1589.290        1589.448        1589.606        1589.711        1589.817        1589.864        1589.912        1589.902        1589.892        1589.829        1589.767        1589.444        1589.121        1588.844        1588.566        1588.325        1588.084        1587.876        1587.667        1587.491        1587.315        1587.098        1586.921        1586.774        1586.656        1586.559        1586.470        1586.377        1586.290        1586.210        1586.149        1586.104        1586.083        1586.080        1586.103        1586.141        1586.201        1586.273        1586.365        1586.466        1586.585        1586.711        1586.854        1587.004        1587.172        1587.346        1587.542        1587.745        1587.973        1588.209        1588.477        1588.755        1589.070        1589.399        1589.772        1590.166        1590.611        1591.081        1591.609        1592.166        1592.795        1593.460        1594.258        1595.135        1596.085        1597.067        1599.156        1601.321        1603.391        1604.843        1605.819        1606.566        1608.488        1610.228        1611.078        1611.745        1611.967        1611.738        1611.036        1610.141        1609.352        1608.735        1608.089        1607.251        1606.434        1606.162        1606.955        1606.582        1605.330        1605.470        1607.140        1606.319        1606.115        1606.160        1605.505        1603.998        1602.414
1529.783        1509.460        1505.872        1507.202        1511.151        1515.834        1520.908        1525.641        1529.683        1533.773        1539.448        1549.079        1563.047        1576.055        1585.551        1592.950        1599.408        1604.764        1607.624        1608.660        1609.128        1609.847        1610.894        1612.002        1612.926        1613.557        1613.998        1614.631        1616.095        1616.042        1615.388        1614.889        1614.265        1613.479        1612.587        1611.679        1610.947        1610.475        1610.243        1609.951        1609.513        1609.042        1608.576        1608.128        1607.706        1607.317        1606.969        1606.697        1606.509        1606.362        1606.281        1606.200        1606.164        1606.128        1606.023        1605.918        1605.738        1605.558        1605.336        1605.114        1604.898        1604.682        1604.572        1604.462        1604.388        1604.313        1604.191        1604.070        1603.882        1603.695        1603.451        1603.206        1602.952        1602.698        1602.479        1602.260        1602.105        1601.950        1601.882        1601.814        1601.839        1601.864        1601.966        1602.069        1602.307        1602.545        1602.945        1603.345        1603.524        1603.704        1603.840        1603.975        1604.066        1604.157        1604.212        1604.266        1604.276        1604.287        1604.256        1604.225        1603.945        1603.665        1603.432        1603.198        1603.004        1602.809        1602.649        1602.489        1602.363        1602.238        1602.070        1601.944        1601.851        1601.787        1601.748        1601.716        1601.680        1601.651        1601.630        1601.627        1601.643        1601.683        1601.743        1601.828        1601.928        1602.051        1602.184        1602.337        1602.496        1602.672        1602.852        1603.048        1603.247        1603.463        1603.681        1603.918        1604.159        1604.422        1604.689        1604.982        1605.281        1605.611        1605.949        1606.325        1606.713        1607.148        1607.599        1608.106        1608.634        1609.247        1609.900        1610.713        1611.610        1612.568        1613.551        1615.627        1617.724        1619.684        1620.995        1621.792        1622.333        1623.963        1625.346        1626.064        1626.733        1627.004        1626.797        1626.206        1625.476        1624.847        1624.331        1623.710        1622.844        1621.946        1621.486        1621.893        1621.288        1619.996        1619.918        1621.225        1620.383        1620.039        1619.937        1619.224        1617.836        1616.438
1541.553        1519.444        1515.621        1517.449        1521.942        1526.998        1532.328        1537.283        1541.416        1545.374        1550.786        1560.474        1575.407        1589.733        1599.956        1607.627        1614.149        1619.500        1622.387        1623.546        1624.167        1624.985        1626.059        1627.142        1628.018        1628.605        1629.000        1629.455        1630.493        1630.371        1629.869        1629.396        1628.760        1627.960        1627.049        1626.165        1625.565        1625.313        1625.299        1625.161        1624.801        1624.364        1623.896        1623.418        1622.940        1622.474        1622.032        1621.629        1621.258        1620.994        1620.802        1620.609        1620.464        1620.319        1620.078        1619.837        1619.543        1619.250        1618.965        1618.680        1618.475        1618.270        1618.301        1618.332        1618.418        1618.504        1618.511        1618.519        1618.422        1618.326        1618.129        1617.932        1617.704        1617.477        1617.269        1617.061        1616.903        1616.744        1616.665        1616.585        1616.593        1616.600        1616.681        1616.763        1616.958        1617.153        1617.474        1617.795        1617.956        1618.118        1618.231        1618.344        1618.421        1618.498        1618.559        1618.619        1618.651        1618.682        1618.683        1618.684        1618.446        1618.208        1618.019        1617.831        1617.682        1617.534        1617.422        1617.311        1617.235        1617.160        1617.042        1616.967        1616.928        1616.919        1616.936        1616.962        1616.983        1617.012        1617.049        1617.106        1617.182        1617.284        1617.406        1617.553        1617.716        1617.901        1618.095        1618.308        1618.526        1618.759        1618.993        1619.242        1619.490        1619.754        1620.016        1620.295        1620.573        1620.870        1621.168        1621.487        1621.808        1622.153        1622.499        1622.877        1623.260        1623.684        1624.118        1624.603        1625.103        1625.699        1626.341        1627.169        1628.086        1629.052        1630.034        1632.099        1634.128        1635.977        1637.148        1637.765        1638.100        1639.438        1640.465        1641.051        1641.722        1642.042        1641.855        1641.376        1640.811        1640.343        1639.926        1639.331        1638.437        1637.459        1636.811        1636.831        1635.993        1634.662        1634.366        1635.309        1634.447        1633.962        1633.714        1632.943        1631.674        1630.463
