-1.0166000e+01  -1.0207000e+01  -1.0990000e+01  -9.8890000e+00  -1.0455000e+01  -1.0347000e+01  -9.7320000e+00  -9.9700000e+00  -9.9920000e+00  -1.0472000e+01  -1.0188000e+01  -8.9170000e+00  -7.1210000e+00  -6.6060000e+00  -6.3590000e+00  -7.1280000e+00  -6.3410000e+00  -3.5780000e+00  -3.5010000e+00  -3.3350000e+00  -3.9070000e+00  -3.5280000e+00  -3.1350000e+00  -3.5950000e+00  -3.2660000e+00  -3.8480000e+00  -2.7840000e+00  -2.4450000e+00  -2.9630000e+00  -2.8860000e+00  -2.6470000e+00  -2.9570000e+00  -2.0700000e+00  -2.6110000e+00  -1.5130000e+00  -1.4020000e+00  -4.2000000e-01   1.4900000e-01   1.7700000e-01  -1.6400000e-01  -1.8400000e-01  -4.0700000e-01  -4.7500000e-01  -1.1600000e-01   2.3200000e-01   1.4400000e-01  -1.2600000e-01  -6.9000000e-02   2.5000000e-01   1.2800000e-01  -3.8200000e-01   2.6200000e-01   2.8300000e-01  -1.2200000e-01   3.2800000e-01   8.8100000e-01  -2.1000000e-02  -4.0900000e-01   3.1000000e-02  -2.3000000e-01  -3.8700000e-01  -2.8600000e-01   1.9000000e-01  -2.6400000e-01  -1.0400000e-01  -3.2000000e-02  -2.8500000e-01   2.9900000e-01   1.0650000e+00   1.0630000e+00   1.0410000e+00   1.0340000e+00   1.0530000e+00   1.0630000e+00   1.0750000e+00   1.0800000e+00   1.0940000e+00   1.1010000e+00   1.0980000e+00   1.0820000e+00   1.1270000e+00   1.1710000e+00   1.1470000e+00   1.0960000e+00   1.0690000e+00   5.7700000e-01   4.1800000e-01   1.8300000e-01   2.2900000e-01   2.5200000e-01   1.9400000e-01  -5.4000000e-02  -6.7500000e-01  -6.9300000e-01  -1.3610000e+00  -9.6800000e-01  -1.7410000e+00  -1.8170000e+00  -3.2470000e+00  -1.1130000e+00   1.1640000e+00   2.9280000e+00   4.5860000e+00   5.7120000e+00   6.9610000e+00   7.4460000e+00   7.7630000e+00   8.7090000e+00   9.1900000e+00   9.5140000e+00   1.0251000e+01   1.0536000e+01   1.0796000e+01   1.1281000e+01   1.1504000e+01   1.1512000e+01   1.1800000e+01   1.2086000e+01   1.2302000e+01   1.2526000e+01   1.2668000e+01   1.2398000e+01   1.2139000e+01   1.2517000e+01   1.2728000e+01   1.2474000e+01   1.2528000e+01   1.2349000e+01   1.2873000e+01   1.3035000e+01   1.3083000e+01   1.3306000e+01   1.3645000e+01   1.3769000e+01   1.2476000e+01   1.1398000e+01   1.0667000e+01   1.0076000e+01   1.1417000e+01   1.3849000e+01   1.5915000e+01   1.6115000e+01   1.5581000e+01   1.4148000e+01   1.3476000e+01   1.3884000e+01   1.4425000e+01   1.3952000e+01   1.6138000e+01   1.5853000e+01   1.5782000e+01   1.8184000e+01   1.8796000e+01   1.7918000e+01   1.7745000e+01   1.7895000e+01   1.7219000e+01   1.6831000e+01   1.6271000e+01   1.5950000e+01
-1.0896000e+01  -1.0185000e+01  -1.0347000e+01  -1.1200000e+01  -1.0703000e+01  -1.0462000e+01  -9.9950000e+00  -9.5790000e+00  -9.5180000e+00  -9.6430000e+00  -1.0014000e+01  -9.9980000e+00  -9.6520000e+00  -9.5020000e+00  -8.4480000e+00  -7.9770000e+00  -6.3380000e+00  -6.6900000e+00  -5.7300000e+00  -6.0910000e+00  -5.2520000e+00  -5.1360000e+00  -3.6930000e+00  -4.0680000e+00  -3.9540000e+00  -3.9110000e+00  -4.4230000e+00  -3.2980000e+00  -3.4250000e+00  -4.2230000e+00  -2.8210000e+00  -2.4010000e+00  -2.6920000e+00  -2.3710000e+00  -2.0070000e+00  -2.5000000e+00  -1.7340000e+00  -1.5640000e+00  -7.0700000e-01  -5.2000000e-01  -8.6600000e-01  -1.5680000e+00  -1.5140000e+00  -1.6570000e+00  -2.1130000e+00   2.0500000e-01  -1.0740000e+00  -6.6000000e-01  -6.9300000e-01  -7.3300000e-01  -5.2600000e-01  -4.1000000e-02   1.0400000e-01   2.0600000e-01   4.0000000e-01   4.2500000e-01   2.5800000e-01   3.9200000e-01   5.1100000e-01   3.3600000e-01   2.2500000e-01   3.2500000e-01  -1.0200000e-01   2.1900000e-01   5.9600000e-01   5.1900000e-01   4.0900000e-01   4.8400000e-01   1.6700000e-01   2.7700000e-01   9.9900000e-01   1.0000000e+00   1.0010000e+00   9.9500000e-01   9.9000000e-01   9.8200000e-01   9.7500000e-01   1.0050000e+00   1.0890000e+00   1.1170000e+00   1.1040000e+00   1.1330000e+00   1.1220000e+00   1.1060000e+00   1.0770000e+00   1.0500000e+00   1.0530000e+00   5.0500000e-01  -1.2800000e-01  -8.6000000e-02  -6.2000000e-01  -6.5200000e-01  -1.1360000e+00  -8.7800000e-01  -1.1460000e+00  -1.8650000e+00  -1.3300000e+00  -2.3560000e+00  -3.3000000e-02   1.6840000e+00   2.6070000e+00   3.9080000e+00   5.4950000e+00   6.7710000e+00   7.7880000e+00   8.5270000e+00   8.5940000e+00   8.3070000e+00   8.0770000e+00   7.8260000e+00   7.9410000e+00   8.1760000e+00   8.2380000e+00   8.7770000e+00   9.5120000e+00   1.0249000e+01   1.0663000e+01   1.0993000e+01   1.1245000e+01   1.1492000e+01   1.1908000e+01   1.2588000e+01   1.2820000e+01   1.2913000e+01   1.2560000e+01   1.2520000e+01   1.1885000e+01   1.1555000e+01   1.1092000e+01   1.1250000e+01   1.1967000e+01   1.3256000e+01   1.4078000e+01   1.4489000e+01   1.4950000e+01   1.4540000e+01   1.3196000e+01   1.2547000e+01   1.2045000e+01   1.1331000e+01   1.2510000e+01   1.5166000e+01   1.5851000e+01   1.5592000e+01   1.3913000e+01   1.4866000e+01   1.5546000e+01   1.6375000e+01   1.5686000e+01   1.4307000e+01   1.5180000e+01   1.6709000e+01   1.7159000e+01   1.6933000e+01   1.7570000e+01   1.8695000e+01   1.9053000e+01   1.8531000e+01   1.8867000e+01   1.7833000e+01
-9.5500000e+00  -8.4790000e+00  -1.0385000e+01  -1.0344000e+01  -1.0227000e+01  -9.6260000e+00  -9.0540000e+00  -9.4060000e+00  -9.7690000e+00  -8.7250000e+00  -9.3150000e+00  -8.8540000e+00  -8.9900000e+00  -7.8760000e+00  -8.2860000e+00  -6.8670000e+00  -5.1910000e+00  -5.4240000e+00  -5.5310000e+00  -5.2020000e+00  -6.3580000e+00  -5.9480000e+00  -5.6660000e+00  -5.4130000e+00  -5.2830000e+00  -4.2960000e+00  -4.4360000e+00  -4.4790000e+00  -4.5120000e+00  -4.0190000e+00  -4.3940000e+00  -3.6270000e+00  -2.7920000e+00  -2.6130000e+00  -2.1600000e+00  -2.7420000e+00  -2.3000000e+00  -1.9040000e+00  -1.5180000e+00  -1.3250000e+00  -1.2260000e+00   1.0130000e+00   1.0430000e+00   9.9200000e-01   9.9000000e-01   1.1330000e+00   5.5300000e-01   3.6600000e-01  -5.8000000e-01  -1.1490000e+00  -8.3900000e-01  -1.2970000e+00  -3.2700000e-01  -8.3000000e-02   6.1000000e-02   5.1500000e-01   6.7200000e-01   4.2500000e-01   6.9700000e-01   6.9400000e-01   1.0070000e+00   1.0080000e+00   1.0660000e+00   9.4600000e-01   1.0230000e+00   1.5600000e-01   7.8500000e-01   7.5900000e-01   5.2700000e-01   1.0740000e+00   1.0950000e+00   7.7300000e-01   6.5900000e-01   7.2700000e-01   6.1100000e-01   3.6400000e-01   7.0300000e-01   8.5000000e-01   1.0080000e+00   1.0180000e+00   9.9800000e-01   1.0180000e+00   1.1010000e+00  -4.1300000e-01  -3.5400000e-01  -1.7500000e-01  -1.0000000e-01   8.9000000e-02  -7.5000000e-02  -8.1000000e-02  -1.2750000e+00  -8.7000000e-01  -9.3300000e-01  -8.1800000e-01  -9.5700000e-01  -2.8810000e+00  -1.7880000e+00   2.0800000e-01   2.0720000e+00   3.4070000e+00   4.6990000e+00   5.7750000e+00   6.6380000e+00   7.3070000e+00   8.0370000e+00   8.6710000e+00   9.0210000e+00   9.2800000e+00   9.5370000e+00   9.7570000e+00   9.9130000e+00   1.0131000e+01   1.0760000e+01   1.1087000e+01   1.1442000e+01   1.1873000e+01   1.2155000e+01   1.2327000e+01   1.2383000e+01   1.2653000e+01   1.2878000e+01   1.3230000e+01   1.3086000e+01   1.2510000e+01   1.2594000e+01   1.3404000e+01   1.4423000e+01   1.4455000e+01   1.3995000e+01   1.3710000e+01   1.3582000e+01   1.3495000e+01   1.3615000e+01   1.3171000e+01   1.3448000e+01   1.4535000e+01   1.4847000e+01   1.3803000e+01   1.1797000e+01   1.1616000e+01   1.2192000e+01   1.4274000e+01   1.3829000e+01   1.4803000e+01   1.4473000e+01   1.4913000e+01   1.5223000e+01   1.5935000e+01   1.6573000e+01   1.6578000e+01   1.6476000e+01   1.5622000e+01   1.6299000e+01   1.6579000e+01   1.7342000e+01   1.8562000e+01   1.9413000e+01   1.8679000e+01   1.9411000e+01   1.9380000e+01
-9.8580000e+00  -1.0758000e+01  -9.9290000e+00  -1.0221000e+01  -1.0019000e+01  -8.7690000e+00  -8.6650000e+00  -8.4910000e+00  -9.0870000e+00  -8.5090000e+00  -8.2690000e+00  -7.1450000e+00  -7.3530000e+00  -6.3850000e+00  -6.2760000e+00  -7.0290000e+00  -5.3630000e+00  -5.9550000e+00  -5.5310000e+00  -5.2610000e+00  -6.3690000e+00  -5.7390000e+00  -5.5750000e+00  -5.8030000e+00  -5.6090000e+00  -5.8120000e+00  -5.3550000e+00  -6.5380000e+00  -2.9820000e+00  -3.0030000e+00  -3.2830000e+00  -2.6390000e+00  -2.3410000e+00  -1.9900000e+00  -1.4830000e+00  -1.8030000e+00  -2.8180000e+00  -2.2890000e+00  -2.9750000e+00  -2.9520000e+00  -2.8350000e+00  -2.9490000e+00  -2.9610000e+00  -2.8690000e+00  -2.7620000e+00  -2.5700000e+00  -2.6100000e+00  -2.6300000e+00  -2.6180000e+00  -2.6270000e+00  -2.3430000e+00  -2.0800000e+00  -1.8890000e+00  -1.6670000e+00  -1.4570000e+00  -1.2820000e+00  -1.0980000e+00  -1.0960000e+00  -1.0780000e+00  -8.5300000e-01  -8.9600000e-01  -9.6100000e-01  -9.1300000e-01  -7.1300000e-01  -6.9100000e-01  -8.1100000e-01  -1.0540000e+00  -1.2640000e+00  -1.0390000e+00   9.8600000e-01   9.9300000e-01   3.0000000e-02   1.1900000e-01   8.5600000e-01   1.0480000e+00   1.0420000e+00   9.9900000e-01   1.0430000e+00   5.9100000e-01   7.2800000e-01   1.5900000e-01  -1.6260000e+00  -5.2400000e-01  -7.2400000e-01  -4.5800000e-01  -1.3340000e+00  -1.3810000e+00  -3.4600000e-01  -5.0500000e-01  -6.1900000e-01  -9.0900000e-01  -9.3400000e-01  -1.3810000e+00  -2.7430000e+00  -3.4130000e+00  -3.2120000e+00  -1.6970000e+00   5.5100000e-01   2.0600000e+00   3.9550000e+00   5.5180000e+00   6.6020000e+00   7.3330000e+00   7.9290000e+00   8.6180000e+00   9.2210000e+00   9.4550000e+00   9.8310000e+00   1.0243000e+01   1.0585000e+01   1.0873000e+01   1.1131000e+01   1.1299000e+01   1.1401000e+01   1.1446000e+01   1.1423000e+01   1.1304000e+01   1.1475000e+01   1.1812000e+01   1.2305000e+01   1.2910000e+01   1.3436000e+01   1.3659000e+01   1.3886000e+01   1.3773000e+01   1.3472000e+01   1.3453000e+01   1.4349000e+01   1.4577000e+01   1.4249000e+01   1.3338000e+01   1.3557000e+01   1.4898000e+01   1.4643000e+01   1.3293000e+01   1.3366000e+01   1.4315000e+01   1.4986000e+01   1.4522000e+01   1.3409000e+01   1.2028000e+01   1.3638000e+01   1.5361000e+01   1.4677000e+01   1.4198000e+01   1.4481000e+01   1.5729000e+01   1.6179000e+01   1.6089000e+01   1.5312000e+01   1.5266000e+01   1.6004000e+01   1.6623000e+01   1.6762000e+01   1.7161000e+01   1.8476000e+01   1.9213000e+01   1.9645000e+01   1.9492000e+01   1.9595000e+01
-9.9450000e+00  -9.4560000e+00  -9.0480000e+00  -9.7000000e+00  -8.9940000e+00  -8.0800000e+00  -8.5010000e+00  -7.8860000e+00  -6.9440000e+00  -6.5770000e+00  -6.6580000e+00  -6.2000000e+00  -5.5260000e+00  -4.8010000e+00  -5.0180000e+00  -5.1470000e+00  -4.6710000e+00  -5.2680000e+00  -5.1030000e+00  -5.2290000e+00  -6.1120000e+00  -4.7060000e+00  -3.8910000e+00  -3.7870000e+00  -3.8880000e+00  -2.4470000e+00  -3.8330000e+00  -4.1190000e+00  -4.7520000e+00  -3.9440000e+00  -4.3390000e+00  -4.5480000e+00  -4.2560000e+00  -3.8290000e+00  -4.2890000e+00  -4.1120000e+00  -4.2280000e+00  -4.7990000e+00  -4.9180000e+00  -4.7350000e+00  -4.9640000e+00  -5.0880000e+00  -4.6590000e+00  -4.3940000e+00  -3.6480000e+00  -3.5090000e+00  -3.4700000e+00  -3.1130000e+00  -2.9530000e+00  -2.7630000e+00  -2.3980000e+00  -1.5800000e+00  -1.3600000e+00  -1.3470000e+00  -1.2590000e+00  -1.3650000e+00  -1.2460000e+00  -1.1890000e+00  -1.2700000e+00  -6.8100000e-01  -8.7100000e-01  -2.4100000e-01  -2.1000000e-01  -3.8200000e-01  -1.1700000e-01   3.4800000e-01   1.0100000e-01  -3.9200000e-01  -3.3600000e-01  -3.0800000e-01  -5.1200000e-01  -4.6500000e-01  -1.0540000e+00   7.2300000e-01  -9.9800000e-01  -1.0300000e+00  -7.4800000e-01  -6.7600000e-01  -5.7500000e-01  -9.2000000e-01  -8.6200000e-01  -1.0330000e+00  -1.0920000e+00  -1.0740000e+00  -1.2350000e+00  -1.2650000e+00  -1.3320000e+00  -1.6830000e+00  -1.6780000e+00  -1.2840000e+00  -1.1880000e+00  -1.2480000e+00  -1.3480000e+00  -1.9760000e+00  -2.4450000e+00  -2.9050000e+00   1.4700000e-01   2.1160000e+00   3.5380000e+00   5.0950000e+00   6.3920000e+00   7.3420000e+00   8.0350000e+00   8.6170000e+00   9.1420000e+00   9.6110000e+00   1.0007000e+01   1.0261000e+01   1.0347000e+01   1.0403000e+01   1.0551000e+01   1.0772000e+01   1.1331000e+01   1.1688000e+01   1.1967000e+01   1.2244000e+01   1.2444000e+01   1.2769000e+01   1.3038000e+01   1.3472000e+01   1.3348000e+01   1.3092000e+01   1.2324000e+01   1.2260000e+01   1.2330000e+01   1.2988000e+01   1.3439000e+01   1.3953000e+01   1.4330000e+01   1.4533000e+01   1.4553000e+01   1.4526000e+01   1.3310000e+01   1.3966000e+01   1.4777000e+01   1.6254000e+01   1.6114000e+01   1.4872000e+01   1.4882000e+01   1.4491000e+01   1.3383000e+01   1.3096000e+01   1.4948000e+01   1.5346000e+01   1.4859000e+01   1.4806000e+01   1.5476000e+01   1.6613000e+01   1.6687000e+01   1.6744000e+01   1.6623000e+01   1.6055000e+01   1.6069000e+01   1.7153000e+01   1.7569000e+01   1.8505000e+01   1.9423000e+01   1.9941000e+01   1.9922000e+01   2.0022000e+01
-9.0370000e+00  -8.6200000e+00  -8.4840000e+00  -8.7950000e+00  -8.2190000e+00  -7.7820000e+00  -6.5780000e+00  -6.8240000e+00  -7.0260000e+00  -6.5790000e+00  -5.4450000e+00  -5.6490000e+00  -5.0060000e+00  -4.8130000e+00  -5.0620000e+00  -3.8160000e+00  -4.8810000e+00  -4.5770000e+00  -4.9550000e+00  -4.7570000e+00  -4.3710000e+00  -5.6250000e+00  -3.8740000e+00  -4.1460000e+00  -3.6130000e+00  -3.3910000e+00  -3.6230000e+00  -3.7960000e+00  -4.4020000e+00  -4.2900000e+00  -4.2150000e+00  -4.4440000e+00  -4.4860000e+00  -4.7490000e+00  -3.7860000e+00  -4.2410000e+00  -3.6000000e+00  -4.8820000e+00  -5.4320000e+00  -4.4080000e+00  -4.2390000e+00  -2.9400000e+00  -4.3260000e+00  -4.2710000e+00  -3.8600000e+00  -3.6010000e+00  -3.4280000e+00  -3.5260000e+00  -3.4950000e+00  -3.2280000e+00  -2.8820000e+00  -2.1890000e+00  -2.5430000e+00  -2.0660000e+00  -2.0030000e+00  -2.2760000e+00  -1.1660000e+00  -9.4100000e-01  -1.0990000e+00  -1.1260000e+00  -1.1110000e+00  -3.0400000e-01   5.1000000e-02  -8.1000000e-01  -7.2600000e-01  -9.4200000e-01  -1.1560000e+00  -1.3850000e+00  -1.2800000e+00  -7.3200000e-01  -9.7500000e-01  -1.3170000e+00  -1.3010000e+00  -1.2470000e+00  -3.6700000e-01  -4.1100000e-01  -1.3920000e+00  -1.2110000e+00  -1.2940000e+00  -1.0310000e+00  -1.2870000e+00  -1.2600000e+00  -1.1520000e+00  -1.8010000e+00  -1.8190000e+00  -1.8970000e+00  -1.7830000e+00  -1.8750000e+00  -1.5890000e+00  -1.9230000e+00  -1.5180000e+00  -1.8470000e+00  -1.9950000e+00  -1.9340000e+00  -2.5260000e+00   1.6700000e-01   1.9940000e+00   3.9910000e+00   5.6010000e+00   6.7130000e+00   7.6090000e+00   8.3810000e+00   8.9420000e+00   9.3640000e+00   9.7550000e+00   1.0000000e+01   1.0159000e+01   1.0426000e+01   1.0627000e+01   1.0742000e+01   1.0915000e+01   1.1156000e+01   1.1518000e+01   1.1634000e+01   1.1886000e+01   1.2155000e+01   1.2121000e+01   1.1986000e+01   1.1878000e+01   1.1608000e+01   1.1988000e+01   1.2777000e+01   1.3517000e+01   1.4251000e+01   1.4575000e+01   1.4577000e+01   1.4615000e+01   1.4880000e+01   1.5153000e+01   1.5199000e+01   1.4754000e+01   1.4043000e+01   1.4250000e+01   1.3688000e+01   1.3594000e+01   1.3712000e+01   1.4617000e+01   1.4788000e+01   1.4743000e+01   1.4176000e+01   1.5023000e+01   1.5026000e+01   1.3910000e+01   1.4764000e+01   1.5497000e+01   1.5793000e+01   1.5892000e+01   1.5489000e+01   1.6346000e+01   1.6783000e+01   1.7122000e+01   1.6242000e+01   1.6517000e+01   1.7030000e+01   1.6959000e+01   1.7678000e+01   1.8722000e+01   1.9709000e+01   1.9840000e+01   2.0061000e+01
-7.8250000e+00  -8.5930000e+00  -7.2010000e+00  -7.5220000e+00  -8.0260000e+00  -7.4140000e+00  -5.6040000e+00  -5.2700000e+00  -5.1070000e+00  -6.0310000e+00  -5.1190000e+00  -5.5350000e+00  -5.4650000e+00  -5.4330000e+00  -4.5410000e+00  -4.1570000e+00  -5.3610000e+00  -4.3060000e+00  -4.8240000e+00  -4.4420000e+00  -4.5380000e+00  -5.4920000e+00  -4.0910000e+00  -3.9820000e+00  -4.1830000e+00  -3.8010000e+00  -3.4110000e+00  -3.6670000e+00  -3.5220000e+00  -4.0010000e+00  -4.1670000e+00  -4.0240000e+00  -3.7050000e+00  -4.2020000e+00  -4.6200000e+00  -3.9360000e+00  -4.5930000e+00  -4.8980000e+00  -3.1290000e+00  -3.2480000e+00  -2.8880000e+00  -2.8840000e+00  -3.2510000e+00  -3.3820000e+00  -3.0430000e+00  -3.6480000e+00  -3.1640000e+00  -3.3750000e+00  -3.2470000e+00  -2.5150000e+00  -3.0480000e+00  -2.1190000e+00  -1.6120000e+00  -1.9260000e+00  -1.5930000e+00  -1.5250000e+00  -1.6910000e+00  -1.9200000e+00  -2.2100000e+00  -1.4670000e+00  -1.8510000e+00  -1.5750000e+00  -1.3510000e+00  -1.6320000e+00  -1.7390000e+00  -1.8330000e+00  -1.6200000e+00  -1.3770000e+00  -1.7020000e+00  -2.2440000e+00  -2.0890000e+00  -2.0650000e+00  -2.0000000e+00  -2.5580000e+00  -2.7910000e+00  -2.7530000e+00  -2.3220000e+00  -2.0130000e+00  -1.9510000e+00  -1.9330000e+00  -1.7460000e+00  -1.7360000e+00  -1.5330000e+00  -1.4510000e+00  -1.5320000e+00  -1.5770000e+00  -1.5630000e+00  -1.5900000e+00  -1.5150000e+00  -1.7650000e+00  -1.5640000e+00  -1.6370000e+00  -1.7380000e+00  -2.4440000e+00  -6.6100000e-01   9.2200000e-01   2.8080000e+00   5.0490000e+00   6.9890000e+00   8.1190000e+00   8.7360000e+00   9.2190000e+00   9.5060000e+00   9.8590000e+00   1.0201000e+01   1.0505000e+01   1.0689000e+01   1.0901000e+01   1.1070000e+01   1.1229000e+01   1.1388000e+01   1.1578000e+01   1.1676000e+01   1.1451000e+01   1.1171000e+01   1.0956000e+01   1.1023000e+01   1.1279000e+01   1.1589000e+01   1.1886000e+01   1.2265000e+01   1.2669000e+01   1.2952000e+01   1.3142000e+01   1.3550000e+01   1.3907000e+01   1.4396000e+01   1.4789000e+01   1.4738000e+01   1.3900000e+01   1.3123000e+01   1.1311000e+01   1.3218000e+01   1.3254000e+01   1.3996000e+01   1.3873000e+01   1.5244000e+01   1.5682000e+01   1.4098000e+01   1.3786000e+01   1.5244000e+01   1.4997000e+01   1.4639000e+01   1.5142000e+01   1.5263000e+01   1.5496000e+01   1.5725000e+01   1.6326000e+01   1.6232000e+01   1.6606000e+01   1.6682000e+01   1.6998000e+01   1.7015000e+01   1.7585000e+01   1.7546000e+01   1.7915000e+01   1.9033000e+01   1.9441000e+01   1.9791000e+01   2.0699000e+01
-7.3590000e+00  -7.1640000e+00  -7.1830000e+00  -4.8900000e+00  -5.2130000e+00  -6.3530000e+00  -5.8610000e+00  -6.2020000e+00  -5.3830000e+00  -5.5930000e+00  -5.0530000e+00  -5.0620000e+00  -5.2500000e+00  -5.1900000e+00  -4.1740000e+00  -3.9120000e+00  -3.5130000e+00  -4.5880000e+00  -4.1600000e+00  -4.4760000e+00  -4.0180000e+00  -4.1660000e+00  -3.8350000e+00  -3.5810000e+00  -4.1330000e+00  -3.9910000e+00  -4.1530000e+00  -3.3170000e+00  -3.3250000e+00  -3.3320000e+00  -3.2410000e+00  -3.2130000e+00  -3.1030000e+00  -3.0290000e+00  -2.8880000e+00  -2.6280000e+00  -2.9820000e+00  -2.8830000e+00  -2.9920000e+00  -3.0080000e+00  -2.5140000e+00  -2.9140000e+00  -2.4710000e+00  -1.5990000e+00  -2.3430000e+00  -2.3610000e+00  -2.6130000e+00  -3.9870000e+00  -3.1170000e+00  -2.2760000e+00  -2.1290000e+00  -2.0090000e+00  -1.5490000e+00  -1.1980000e+00  -1.1210000e+00  -4.0500000e-01  -4.4500000e-01  -4.1800000e-01  -6.1400000e-01  -7.9300000e-01  -9.8100000e-01  -3.9900000e-01  -5.8200000e-01  -2.7100000e-01  -3.0800000e-01  -3.2600000e-01  -4.2100000e-01  -4.9100000e-01  -3.4000000e-01  -5.8500000e-01  -7.2600000e-01   3.8000000e-02   2.8000000e-02   6.5000000e-02  -2.5400000e-01  -2.0100000e-01  -4.0000000e-02  -2.6100000e-01  -3.2800000e-01  -3.9700000e-01  -3.2800000e-01  -4.3000000e-01   3.1900000e-01   4.5600000e-01  -1.6100000e-01   4.6000000e-02   3.1000000e-02  -1.3200000e-01  -3.0300000e-01  -6.1400000e-01  -1.0770000e+00  -1.0300000e+00  -1.8240000e+00  -3.0100000e+00  -4.0200000e-01   1.1280000e+00   2.8710000e+00   4.7280000e+00   6.1100000e+00   7.1770000e+00   8.0820000e+00   8.6580000e+00   8.9790000e+00   9.2470000e+00   9.5230000e+00   9.8580000e+00   1.0154000e+01   1.0325000e+01   1.0539000e+01   1.0759000e+01   1.0969000e+01   1.1166000e+01   1.1415000e+01   1.1660000e+01   1.1845000e+01   1.1966000e+01   1.1976000e+01   1.1849000e+01   1.1676000e+01   1.1554000e+01   1.1542000e+01   1.1573000e+01   1.1969000e+01   1.2465000e+01   1.2918000e+01   1.3342000e+01   1.3588000e+01   1.3833000e+01   1.3891000e+01   1.4336000e+01   1.4291000e+01   1.3970000e+01   1.3837000e+01   1.2314000e+01   1.0387000e+01   8.7350000e+00   1.0932000e+01   1.5118000e+01   1.5979000e+01   1.4398000e+01   1.3326000e+01   1.3620000e+01   1.4877000e+01   1.5529000e+01   1.4661000e+01   1.5271000e+01   1.5437000e+01   1.5975000e+01   1.6616000e+01   1.6776000e+01   1.6593000e+01   1.7323000e+01   1.7745000e+01   1.7606000e+01   1.7326000e+01   1.7429000e+01   1.7871000e+01   1.8974000e+01   2.0012000e+01   2.0380000e+01
-7.4080000e+00  -7.0650000e+00  -6.8700000e+00  -6.7010000e+00  -6.2000000e+00  -6.0920000e+00  -6.6080000e+00  -5.4680000e+00   1.5900000e-01  -5.2720000e+00  -5.1160000e+00  -5.3820000e+00  -5.9450000e+00  -4.1420000e+00  -3.4580000e+00  -2.1200000e+00  -3.5660000e+00  -3.2800000e+00  -3.4130000e+00  -3.3260000e+00  -5.8840000e+00  -3.0070000e+00  -3.5260000e+00  -4.6460000e+00  -4.4910000e+00  -4.2880000e+00  -4.0320000e+00  -3.3210000e+00  -3.0660000e+00  -2.9260000e+00  -3.2460000e+00  -3.1640000e+00  -3.3140000e+00  -2.7420000e+00  -2.6140000e+00  -2.1910000e+00  -2.2070000e+00  -1.8170000e+00  -1.7920000e+00  -1.4910000e+00  -1.6050000e+00   9.8000000e-02  -1.6060000e+00  -1.1880000e+00  -1.3170000e+00  -1.5020000e+00  -1.6040000e+00  -1.8620000e+00  -3.1110000e+00  -3.7400000e+00  -3.5400000e+00  -3.1500000e+00  -2.8290000e+00  -2.5300000e-01  -1.1270000e+00  -7.0200000e-01   9.8000000e-02   1.4200000e-01  -2.7400000e-01  -1.0770000e+00  -3.7700000e-01  -1.2670000e+00   5.6300000e-01   3.2600000e-01   9.7500000e-01  -2.0000000e-02   2.2000000e-02   1.4800000e-01   1.5300000e-01   1.5200000e-01   1.5500000e-01  -2.9300000e-01  -6.4000000e-01  -6.6500000e-01  -5.9200000e-01  -5.8700000e-01  -8.1200000e-01  -7.5900000e-01  -7.4600000e-01  -8.7300000e-01  -1.0230000e+00  -1.1540000e+00  -9.3300000e-01  -6.5200000e-01  -9.1500000e-01  -3.2900000e-01  -8.4500000e-01  -1.2150000e+00  -1.2740000e+00  -1.7420000e+00  -4.4810000e+00  -3.7420000e+00  -1.1770000e+00   4.4500000e-01   2.1150000e+00   3.8150000e+00   5.4110000e+00   6.6040000e+00   7.4010000e+00   7.9760000e+00   8.3020000e+00   8.5430000e+00   8.7390000e+00   8.9050000e+00   9.0730000e+00   9.2470000e+00   9.4690000e+00   9.6870000e+00   9.8680000e+00   1.0038000e+01   1.0216000e+01   1.0312000e+01   1.0449000e+01   1.0633000e+01   1.0833000e+01   1.1060000e+01   1.1335000e+01   1.1569000e+01   1.1952000e+01   1.2131000e+01   1.2295000e+01   1.2575000e+01   1.2797000e+01   1.2550000e+01   1.1859000e+01   1.1208000e+01   1.0170000e+01   1.0072000e+01   1.0611000e+01   1.2761000e+01   1.4564000e+01   1.5810000e+01   1.5195000e+01   1.3741000e+01   1.3192000e+01   1.2384000e+01   1.1248000e+01   1.1120000e+01   1.0861000e+01   1.2709000e+01   1.2947000e+01   1.3692000e+01   1.3977000e+01   1.5718000e+01   1.5773000e+01   1.4298000e+01   1.5106000e+01   1.5376000e+01   1.6034000e+01   1.6437000e+01   1.6677000e+01   1.7371000e+01   1.8618000e+01   1.8599000e+01   1.7965000e+01   1.7614000e+01   1.8257000e+01   1.9213000e+01   1.9843000e+01   2.1039000e+01
-6.7580000e+00  -7.3020000e+00  -6.4280000e+00  -6.4120000e+00  -6.0190000e+00  -4.6480000e+00  -5.2830000e+00  -4.9060000e+00   2.1000000e-01  -4.3240000e+00  -4.1000000e+00  -4.3890000e+00  -3.6050000e+00  -3.7700000e+00  -3.2610000e+00  -4.2030000e+00  -3.6270000e+00  -3.3470000e+00  -6.3000000e-01  -2.8750000e+00  -4.5800000e-01  -3.7140000e+00  -3.3850000e+00  -3.2060000e+00  -3.3260000e+00  -3.2320000e+00  -2.9730000e+00  -3.5650000e+00  -3.2570000e+00  -2.7560000e+00  -2.9530000e+00  -2.7660000e+00  -3.2070000e+00  -3.5210000e+00  -2.8950000e+00  -2.6090000e+00  -2.1850000e+00  -1.8200000e+00  -2.2630000e+00  -1.9940000e+00  -1.7470000e+00  -9.1200000e-01   1.5800000e-01   4.0600000e-01   7.6800000e-01  -1.4780000e+00  -1.5280000e+00  -2.1010000e+00  -1.8860000e+00  -2.3670000e+00  -3.9380000e+00  -1.4910000e+00  -2.5280000e+00  -2.5550000e+00  -2.9080000e+00  -2.9300000e+00  -2.5040000e+00  -1.7120000e+00  -8.3700000e-01  -5.4000000e-01  -1.2710000e+00  -4.6400000e-01  -4.6700000e-01  -9.6200000e-01  -6.6200000e-01  -6.6000000e-02  -1.8400000e-01  -1.2100000e-01   4.0000000e-03   1.8000000e-01   1.3400000e-01   1.3700000e-01   1.5200000e-01   1.5400000e-01   1.4300000e-01   1.3000000e-01   1.1600000e-01   1.1800000e-01   1.5000000e-01   1.9800000e-01   1.9200000e-01   5.5000000e-02  -2.2600000e-01  -3.2300000e-01  -8.3600000e-01  -6.3900000e-01  -6.8800000e-01  -7.6300000e-01  -9.4000000e-01  -1.2350000e+00  -1.2740000e+00  -2.8790000e+00  -4.3040000e+00  -2.0100000e+00  -2.9600000e-01   2.3420000e+00   3.9900000e+00   5.2330000e+00   6.2580000e+00   6.7360000e+00   6.9350000e+00   6.7850000e+00   6.4700000e+00   6.2150000e+00   6.1620000e+00   6.0670000e+00   6.1280000e+00   6.2930000e+00   6.5800000e+00   6.8420000e+00   7.0870000e+00   7.3490000e+00   7.6450000e+00   7.9610000e+00   8.2040000e+00   8.6080000e+00   8.9820000e+00   9.3370000e+00   9.7890000e+00   1.0206000e+01   1.0439000e+01   1.1010000e+01   1.1274000e+01   1.1829000e+01   1.1560000e+01   1.1982000e+01   1.2928000e+01   1.3518000e+01   1.3117000e+01   1.2908000e+01   1.1610000e+01   1.2136000e+01   1.2238000e+01   1.2823000e+01   1.3236000e+01   1.3082000e+01   1.3282000e+01   1.2323000e+01   1.1780000e+01   1.2131000e+01   1.3111000e+01   1.3820000e+01   1.4447000e+01   1.3851000e+01   1.5193000e+01   1.4854000e+01   1.5909000e+01   1.4406000e+01   1.5887000e+01   1.6042000e+01   1.6825000e+01   1.7404000e+01   1.7345000e+01   1.8479000e+01   1.8414000e+01   1.8078000e+01   1.7516000e+01   1.8228000e+01   2.0063000e+01   2.1157000e+01
-7.0250000e+00  -6.7930000e+00  -6.3900000e+00  -6.4120000e+00  -5.4780000e+00  -5.3430000e+00  -3.6510000e+00   7.2600000e-01  -2.4230000e+00  -4.2530000e+00  -4.3020000e+00  -4.2850000e+00  -3.2350000e+00  -3.2600000e+00  -5.6490000e+00  -3.0860000e+00  -3.0860000e+00  -2.8910000e+00  -2.7540000e+00  -1.5000000e-02  -1.4310000e+00  -2.6530000e+00  -3.9950000e+00  -2.7890000e+00  -3.7320000e+00  -3.1500000e+00  -3.5410000e+00  -3.6850000e+00  -3.4320000e+00  -3.0370000e+00  -2.7410000e+00  -1.9200000e+00  -3.8320000e+00  -2.8740000e+00  -2.2900000e+00  -2.4220000e+00  -2.4360000e+00  -2.5120000e+00  -2.1870000e+00  -1.8630000e+00  -1.7210000e+00  -2.9990000e+00  -2.1960000e+00  -1.1410000e+00  -4.0400000e-01  -8.2600000e-01  -2.6000000e-01   1.0290000e+00   1.2370000e+00  -6.0500000e-01  -7.0200000e-01  -9.8900000e-01  -1.5070000e+00  -2.7480000e+00  -3.6060000e+00  -1.2870000e+00  -2.1730000e+00  -2.5510000e+00  -1.3690000e+00  -1.3010000e+00  -6.5800000e-01  -3.2300000e-01  -1.3200000e-01  -1.7600000e-01  -1.2600000e-01  -1.7000000e-01  -8.1100000e-01  -8.9500000e-01  -7.8200000e-01  -8.7700000e-01   7.7000000e-02   1.8300000e-01   1.7900000e-01  -4.4800000e-01  -1.0960000e+00  -6.8000000e-01  -5.0600000e-01  -3.7700000e-01  -7.9000000e-02  -1.5700000e-01   2.0000000e-02  -1.5200000e-01  -4.2500000e-01  -3.3500000e-01  -5.9500000e-01  -7.4800000e-01  -7.1100000e-01  -8.7600000e-01  -1.1460000e+00  -1.4330000e+00  -1.9190000e+00  -2.6720000e+00  -1.7990000e+00  -3.8790000e+00  -2.2070000e+00  -8.2500000e-01   1.3490000e+00   3.9040000e+00   4.7230000e+00   5.6380000e+00   6.0240000e+00   6.4660000e+00   6.5610000e+00   6.5040000e+00   6.4590000e+00   6.3870000e+00   6.4490000e+00   6.4450000e+00   6.6310000e+00   6.7990000e+00   7.1180000e+00   7.5970000e+00   8.1680000e+00   8.8500000e+00   9.7150000e+00   1.0280000e+01   1.0247000e+01   1.0311000e+01   1.0453000e+01   1.0383000e+01   9.8090000e+00   9.2540000e+00   8.5840000e+00   8.2950000e+00   7.6300000e+00   8.2080000e+00   9.9730000e+00   1.2111000e+01   1.1693000e+01   1.1288000e+01   1.2581000e+01   1.3141000e+01   1.3386000e+01   1.2800000e+01   1.2511000e+01   1.2569000e+01   1.2680000e+01   1.3299000e+01   1.3272000e+01   1.3201000e+01   1.3209000e+01   1.3651000e+01   1.4842000e+01   1.3870000e+01   1.4660000e+01   1.4937000e+01   1.4808000e+01   1.5931000e+01   1.5962000e+01   1.6604000e+01   1.6867000e+01   1.7295000e+01   1.7314000e+01   1.7663000e+01   1.8167000e+01   1.8330000e+01   1.7978000e+01   1.8360000e+01   1.9293000e+01   2.0625000e+01
-2.0470000e+00  -6.5360000e+00  -6.5630000e+00  -5.9910000e+00  -5.1390000e+00  -4.5970000e+00  -4.0620000e+00  -3.9560000e+00  -5.2120000e+00  -4.5870000e+00  -4.3280000e+00  -3.2340000e+00  -3.4920000e+00  -3.0880000e+00  -2.0450000e+00  -1.9510000e+00  -1.7470000e+00  -2.2180000e+00  -1.8620000e+00   2.8000000e-02  -2.2550000e+00  -2.7620000e+00  -3.4480000e+00  -3.3400000e+00  -3.2370000e+00  -3.3550000e+00  -4.2430000e+00  -3.7650000e+00  -3.7570000e+00  -4.4340000e+00  -2.6460000e+00  -1.9160000e+00  -2.3360000e+00  -3.0210000e+00  -2.2680000e+00  -1.6470000e+00  -1.7120000e+00  -1.6710000e+00  -1.2510000e+00  -1.8800000e+00  -1.1680000e+00  -1.3100000e+00  -5.9800000e-01  -7.4500000e-01  -7.7900000e-01  -3.6000000e-02  -2.7140000e+00   1.4860000e+00   1.6300000e+00   1.7600000e-01   6.3000000e-02  -1.3890000e+00  -1.6950000e+00  -1.7650000e+00  -3.2560000e+00  -3.0830000e+00  -2.5200000e+00  -2.6380000e+00  -1.9690000e+00  -1.8940000e+00  -2.6040000e+00  -1.0740000e+00  -1.9240000e+00  -1.2600000e+00  -8.3400000e-01   8.4000000e-02   1.3300000e-01   1.0700000e-01   1.7000000e-01   1.8000000e-01  -1.2400000e-01  -1.3000000e-01  -1.4900000e-01  -6.5000000e-02  -5.2000000e-01  -9.6600000e-01  -1.0330000e+00  -6.5700000e-01   1.3500000e-01   1.3400000e-01   6.8000000e-02  -2.6900000e-01  -1.4000000e-01  -1.9200000e-01  -3.9300000e-01  -8.9600000e-01  -1.2830000e+00  -1.2400000e+00  -1.2830000e+00  -1.4800000e+00  -1.5780000e+00  -1.8220000e+00  -1.8100000e+00  -1.8820000e+00  -3.2890000e+00  -3.1650000e+00  -1.3090000e+00   2.6800000e-01   2.8630000e+00   4.4270000e+00   5.4810000e+00   6.2260000e+00   6.7590000e+00   7.1710000e+00   7.5050000e+00   7.9150000e+00   8.2290000e+00   8.4240000e+00   8.8660000e+00   9.5060000e+00   9.5850000e+00   9.5510000e+00   9.5860000e+00   9.7900000e+00   1.0199000e+01   1.0455000e+01   1.0442000e+01   1.0338000e+01   9.9540000e+00   9.5200000e+00   9.0990000e+00   8.7350000e+00   8.9840000e+00   1.0118000e+01   1.1760000e+01   1.2075000e+01   1.0298000e+01   8.6300000e+00   9.4450000e+00   1.0895000e+01   1.2231000e+01   1.2470000e+01   1.2662000e+01   1.2753000e+01   1.2324000e+01   1.2312000e+01   1.2655000e+01   1.3098000e+01   1.3911000e+01   1.4396000e+01   1.4658000e+01   1.3542000e+01   1.3872000e+01   1.5358000e+01   1.4763000e+01   1.5413000e+01   1.5885000e+01   1.4956000e+01   1.5592000e+01   1.5725000e+01   1.7114000e+01   1.7332000e+01   1.7226000e+01   1.6830000e+01   1.7746000e+01   1.8174000e+01   1.7900000e+01   1.7633000e+01   1.7532000e+01   1.8906000e+01
-6.6600000e+00  -3.1900000e+00  -6.0900000e+00  -5.9490000e+00  -5.2760000e+00  -4.7120000e+00  -3.6680000e+00   4.8000000e-02  -3.6930000e+00  -3.7640000e+00  -3.8560000e+00  -3.2410000e+00  -2.7220000e+00  -2.5210000e+00  -3.8900000e-01  -4.3800000e-01  -9.0800000e-01  -1.2420000e+00   2.1000000e-01  -1.7230000e+00  -1.9290000e+00  -2.3630000e+00  -4.0860000e+00  -3.4260000e+00  -4.1030000e+00  -4.0430000e+00  -3.0840000e+00  -3.6340000e+00  -4.3530000e+00  -2.6620000e+00  -1.7460000e+00  -1.3010000e+00  -7.9600000e-01  -9.0100000e-01   2.5700000e-01  -1.3870000e+00  -1.5120000e+00  -1.1180000e+00  -1.5070000e+00  -5.5700000e-01  -7.5700000e-01  -1.7500000e-01   1.0570000e+00   1.1680000e+00   1.4140000e+00   8.8000000e-02   4.1300000e-01  -1.3100000e-01   1.1600000e-01  -1.0040000e+00   1.4300000e-01  -8.3900000e-01  -1.2790000e+00  -9.2500000e-01  -1.0920000e+00  -2.5280000e+00  -3.8480000e+00  -2.2420000e+00  -9.6500000e-01  -3.1100000e-01   3.3000000e-02  -3.0000000e-03  -9.2000000e-01  -1.9860000e+00  -1.3350000e+00  -1.6660000e+00  -1.6860000e+00  -1.2670000e+00  -2.2400000e-01   9.6000000e-02  -1.0000000e-01   1.3100000e-01   8.8000000e-02   1.2000000e-01   1.9700000e-01   1.2000000e-01   1.1200000e-01  -6.1000000e-02  -8.4000000e-02  -3.0700000e-01  -4.0300000e-01  -2.1700000e-01  -9.9000000e-02  -1.9000000e-01  -1.8500000e-01  -3.0600000e-01  -1.0300000e+00  -8.8100000e-01  -9.9100000e-01  -1.1730000e+00  -1.7250000e+00  -1.4140000e+00  -1.3640000e+00  -1.6300000e+00  -2.2280000e+00  -2.9660000e+00  -1.5380000e+00   4.9200000e-01   1.7000000e+00   3.1420000e+00   4.8090000e+00   6.2700000e+00   7.2770000e+00   7.9750000e+00   8.4620000e+00   8.6900000e+00   8.7170000e+00   8.5800000e+00   8.6480000e+00   8.7990000e+00   8.7490000e+00   8.4780000e+00   8.0870000e+00   7.6460000e+00   7.2170000e+00   6.8690000e+00   6.7910000e+00   7.0880000e+00   7.5850000e+00   8.0150000e+00   8.6170000e+00   9.9250000e+00   1.1048000e+01   1.1152000e+01   9.6100000e+00   9.4410000e+00   9.6310000e+00   1.1429000e+01   1.0945000e+01   1.1475000e+01   1.2063000e+01   1.1717000e+01   1.1935000e+01   1.3203000e+01   1.3111000e+01   1.2569000e+01   1.2673000e+01   1.3371000e+01   1.4076000e+01   1.3909000e+01   1.4845000e+01   1.4454000e+01   1.3275000e+01   1.4298000e+01   1.4620000e+01   1.5534000e+01   1.5287000e+01   1.6176000e+01   1.5738000e+01   1.6163000e+01   1.6912000e+01   1.7161000e+01   1.7483000e+01   1.7218000e+01   1.8194000e+01   1.8295000e+01   1.8680000e+01   1.8601000e+01   1.8027000e+01   1.8262000e+01
-7.9490000e+00  -6.4140000e+00  -1.6740000e+00  -5.5730000e+00  -5.8520000e+00  -5.2160000e+00  -6.0790000e+00   9.7400000e-01  -2.9300000e+00  -3.2590000e+00  -3.0850000e+00  -2.8230000e+00  -5.0000000e-03  -2.2000000e+00  -5.2200000e-01  -1.8700000e-01  -3.3300000e-01  -1.1900000e-01   3.6400000e-01  -1.2720000e+00  -1.3560000e+00  -2.1120000e+00  -2.8480000e+00  -4.1030000e+00  -5.9510000e+00  -2.6710000e+00  -2.8190000e+00  -3.4170000e+00  -2.5640000e+00  -2.9440000e+00  -1.5840000e+00  -2.0770000e+00  -2.4460000e+00  -1.6650000e+00  -6.6900000e-01  -7.1800000e-01   1.0430000e+00  -9.5000000e-01  -9.6100000e-01  -1.4390000e+00   9.0000000e-02  -1.0800000e+00   1.5930000e+00   1.9650000e+00   4.1200000e-01   8.0900000e-01   1.5100000e-01   1.1500000e-01  -5.8400000e-01  -5.5100000e-01  -9.5200000e-01  -7.6600000e-01  -5.4200000e-01  -1.4600000e-01  -8.0500000e-01  -7.8100000e-01  -1.1970000e+00  -2.9600000e+00  -2.7480000e+00  -1.1240000e+00  -4.0400000e-01   2.4000000e-02   1.0500000e-01   1.8000000e-01   1.6600000e-01  -1.1700000e-01  -1.7180000e+00  -1.8380000e+00  -2.0240000e+00  -1.7120000e+00  -1.6300000e+00  -1.2390000e+00  -1.2650000e+00  -1.4750000e+00  -1.2430000e+00  -1.1310000e+00  -6.3800000e-01  -1.1700000e-01   1.4800000e-01   1.4600000e-01   1.1700000e-01   2.6100000e-01   3.4400000e-01  -2.3900000e-01  -1.3630000e+00  -2.0800000e+00  -9.2400000e-01  -7.8800000e-01  -7.4800000e-01  -9.1100000e-01  -1.0290000e+00  -1.1430000e+00  -1.5870000e+00  -1.7300000e+00  -1.8750000e+00  -2.8950000e+00  -2.5400000e+00  -4.3100000e-01   6.3800000e-01   2.3940000e+00   4.4570000e+00   5.8160000e+00   6.6270000e+00   7.2820000e+00   7.8220000e+00   8.2460000e+00   8.6390000e+00   9.0650000e+00   9.4600000e+00   9.7430000e+00   1.0022000e+01   1.0308000e+01   1.0594000e+01   1.0827000e+01   1.0763000e+01   1.0512000e+01   1.0014000e+01   9.3430000e+00   8.7020000e+00   8.2150000e+00   7.6720000e+00   7.7630000e+00   8.3640000e+00   9.6740000e+00   1.2143000e+01   1.2315000e+01   1.1510000e+01   1.0750000e+01   1.0989000e+01   1.2009000e+01   1.0134000e+01   1.0497000e+01   1.2938000e+01   1.3157000e+01   1.3758000e+01   1.3932000e+01   1.3925000e+01   1.3213000e+01   1.4592000e+01   1.4219000e+01   1.4723000e+01   1.4616000e+01   1.4459000e+01   1.3484000e+01   1.4791000e+01   1.4621000e+01   1.5168000e+01   1.5836000e+01   1.6357000e+01   1.6525000e+01   1.6910000e+01   1.7471000e+01   1.7628000e+01   1.8142000e+01   1.8059000e+01   1.8254000e+01   1.8590000e+01   1.8757000e+01   1.8423000e+01   1.8399000e+01
-7.4890000e+00  -6.1520000e+00  -2.9000000e+00   1.9200000e-01   8.9100000e-01  -2.5790000e+00  -4.8090000e+00  -4.5280000e+00   1.0000000e+00   1.1010000e+00  -2.0100000e+00  -8.5500000e-01  -3.5790000e+00  -1.2070000e+00  -5.1700000e-01  -5.9200000e-01   4.6000000e-02   1.8500000e-01   2.0600000e-01  -1.4480000e+00  -2.7020000e+00  -5.8300000e-01  -2.2010000e+00  -3.2510000e+00  -2.7180000e+00  -3.3070000e+00  -9.0800000e-01  -1.1750000e+00  -3.0860000e+00  -9.8200000e-01  -4.4600000e-01  -2.1900000e-01  -8.5900000e-01  -4.1100000e-01  -1.1770000e+00  -8.3000000e-01   1.4900000e-01   2.1500000e-01   8.8000000e-02   1.4300000e-01   1.0600000e-01  -3.2300000e-01   1.0270000e+00   2.1010000e+00   1.6390000e+00   2.5290000e+00   2.2060000e+00   1.7520000e+00   1.4450000e+00   1.2420000e+00   1.1020000e+00  -3.2100000e-01  -5.1000000e-01  -5.8800000e-01  -3.4700000e-01  -1.0280000e+00  -8.5700000e-01  -1.4500000e-01  -1.0000000e+00  -3.7440000e+00  -3.1250000e+00  -6.7100000e-01   1.4700000e-01   8.9800000e-01   1.0090000e+00   9.7000000e-02   6.1000000e-02   4.4900000e-01   1.6100000e-01   3.3000000e-01   1.7200000e-01   1.6900000e-01  -6.0200000e-01  -1.4630000e+00  -2.1290000e+00  -2.3000000e+00  -1.9350000e+00  -1.3260000e+00  -8.3400000e-01  -5.1900000e-01   3.9000000e-02   8.7200000e-01   4.2800000e-01  -2.9400000e-01  -1.1570000e+00  -1.6720000e+00  -1.5140000e+00  -1.5220000e+00  -1.7920000e+00  -1.7070000e+00  -1.6500000e+00  -1.5180000e+00  -1.8370000e+00  -2.2460000e+00  -2.4670000e+00  -3.6140000e+00  -2.4300000e+00  -1.5200000e-01   1.3280000e+00   4.1770000e+00   5.3560000e+00   6.1760000e+00   6.7060000e+00   7.0450000e+00   7.0720000e+00   7.0670000e+00   7.0150000e+00   7.0550000e+00   7.0340000e+00   6.9330000e+00   7.0410000e+00   7.2200000e+00   7.5330000e+00   8.0020000e+00   8.4260000e+00   8.9040000e+00   9.5230000e+00   9.8150000e+00   1.0410000e+01   1.1052000e+01   1.1763000e+01   1.2084000e+01   1.1488000e+01   1.1496000e+01   1.1218000e+01   1.0972000e+01   1.1354000e+01   1.1914000e+01   1.1907000e+01   1.1186000e+01   1.2089000e+01   1.3238000e+01   1.2144000e+01   1.3068000e+01   1.3648000e+01   1.3745000e+01   1.4412000e+01   1.4107000e+01   1.3792000e+01   1.3609000e+01   1.4804000e+01   1.4966000e+01   1.5419000e+01   1.4332000e+01   1.4182000e+01   1.4716000e+01   1.6081000e+01   1.5294000e+01   1.6142000e+01   1.6928000e+01   1.6591000e+01   1.7384000e+01   1.7897000e+01   1.8445000e+01   1.7998000e+01   1.8270000e+01   1.8697000e+01   1.8722000e+01   1.8854000e+01   1.9013000e+01
-7.7770000e+00  -6.0160000e+00  -6.2310000e+00  -5.4610000e+00   1.1350000e+00   5.2800000e-01   1.0550000e+00   2.5200000e-01   1.0190000e+00   1.0000000e+00   9.4000000e-02  -1.9140000e+00   1.6900000e-01  -2.5070000e+00   8.1000000e-02   9.5300000e-01   1.0250000e+00   2.2000000e-02  -4.0000000e-03  -1.5200000e-01   1.5000000e-02  -1.7120000e+00  -3.2610000e+00  -4.0280000e+00  -2.4880000e+00  -1.5950000e+00  -9.5000000e-01  -5.1000000e-01  -1.0700000e+00  -7.5900000e-01  -2.2100000e+00  -1.2430000e+00  -1.1840000e+00  -1.2160000e+00  -5.8900000e-01  -4.0700000e-01   7.1200000e-01   1.0000000e+00   1.0190000e+00   1.1080000e+00   1.2500000e+00   1.3120000e+00   1.4270000e+00   1.7430000e+00   1.8620000e+00   1.8190000e+00   1.7980000e+00   1.7180000e+00   1.5690000e+00   1.4650000e+00   1.3360000e+00   1.1800000e+00   9.9400000e-01   9.9500000e-01   1.0150000e+00   1.0140000e+00   1.0090000e+00   1.0100000e+00   1.0010000e+00   9.5900000e-01  -2.5730000e+00  -4.3940000e+00  -3.5260000e+00  -2.5470000e+00  -1.0880000e+00   1.0910000e+00   1.0010000e+00   1.0000000e+00   1.0000000e+00   1.0100000e+00   1.0110000e+00   1.0100000e+00   1.0100000e+00   1.0100000e+00   1.0110000e+00   1.0100000e+00   1.0100000e+00   1.0110000e+00   1.0100000e+00   1.0110000e+00   1.0200000e+00   1.0410000e+00   8.2700000e-01   1.3300000e-01  -6.1200000e-01  -8.6900000e-01  -6.4200000e-01  -6.0400000e-01  -7.3300000e-01  -1.1630000e+00  -1.7950000e+00  -2.1900000e+00  -2.6810000e+00  -2.3320000e+00  -3.3560000e+00  -3.4860000e+00  -8.2600000e-01   4.0200000e-01   2.4640000e+00   3.9120000e+00   5.1390000e+00   6.1630000e+00   6.9880000e+00   7.6180000e+00   8.1020000e+00   8.4940000e+00   8.8110000e+00   9.1220000e+00   9.4530000e+00   9.5930000e+00   9.6130000e+00   9.5740000e+00   9.4690000e+00   9.3520000e+00   9.2760000e+00   9.1100000e+00   8.9220000e+00   8.8210000e+00   8.8840000e+00   8.9590000e+00   8.9990000e+00   9.6290000e+00   1.0087000e+01   1.0545000e+01   1.1116000e+01   1.1525000e+01   1.1525000e+01   1.1663000e+01   1.2404000e+01   1.2533000e+01   1.2433000e+01   1.2127000e+01   1.2983000e+01   1.3835000e+01   1.4546000e+01   1.3533000e+01   1.3310000e+01   1.3602000e+01   1.4233000e+01   1.3740000e+01   1.3789000e+01   1.4650000e+01   1.4362000e+01   1.5561000e+01   1.4858000e+01   1.5465000e+01   1.5230000e+01   1.4803000e+01   1.5709000e+01   1.6294000e+01   1.6786000e+01   1.8244000e+01   1.8420000e+01   1.8125000e+01   1.8617000e+01   1.8763000e+01   1.8700000e+01   1.8475000e+01   1.8865000e+01   1.8772000e+01
-6.9130000e+00  -6.3260000e+00  -7.8550000e+00  -5.5770000e+00  -4.8070000e+00  -4.6850000e+00  -2.7350000e+00   1.0420000e+00  -7.7000000e-02   9.9600000e-01   4.0000000e-03   1.0960000e+00   1.1120000e+00   1.1780000e+00   1.1590000e+00   1.2440000e+00   1.2270000e+00   1.0470000e+00   1.0130000e+00   1.0600000e-01  -1.1630000e+00  -2.4730000e+00  -2.5090000e+00  -4.3940000e+00  -4.8700000e-01  -1.0250000e+00  -2.3770000e+00  -1.6210000e+00  -1.1000000e+00  -2.6220000e+00  -3.5000000e+00  -3.5830000e+00  -2.8050000e+00  -1.2980000e+00  -1.4240000e+00  -8.0700000e-01  -4.6000000e-02  -6.0000000e-03   1.1090000e+00   1.4760000e+00   2.2330000e+00   2.1940000e+00   1.8590000e+00   1.8390000e+00   1.8030000e+00   1.7020000e+00   1.6170000e+00   1.5340000e+00   1.4500000e+00   1.3890000e+00   1.3370000e+00   1.2850000e+00   1.2320000e+00   1.1540000e+00   1.0990000e+00   1.0650000e+00   1.0400000e+00   1.0200000e+00   1.0100000e+00   1.0040000e+00   1.0240000e+00  -1.2300000e-01  -2.5330000e+00   1.0120000e+00   1.0370000e+00   1.0300000e+00   1.0440000e+00   2.0400000e-01   1.0230000e+00   1.0280000e+00   1.0020000e+00   1.0090000e+00   1.0100000e+00   1.0110000e+00   1.0100000e+00   1.0100000e+00   1.0100000e+00   1.0110000e+00   1.0110000e+00   1.0100000e+00   1.0090000e+00   8.8500000e-01   5.1800000e-01   1.8400000e-01   1.2500000e-01   2.7000000e-02  -6.7500000e-01  -6.6100000e-01  -1.1330000e+00  -1.3610000e+00  -1.5890000e+00  -1.8910000e+00  -1.8180000e+00  -2.0110000e+00  -3.3790000e+00  -2.5780000e+00  -1.2430000e+00   9.9300000e-01   3.4800000e+00   4.9310000e+00   6.0890000e+00   6.8950000e+00   7.4960000e+00   7.9240000e+00   8.3050000e+00   8.6660000e+00   8.8030000e+00   8.9150000e+00   8.7780000e+00   8.8320000e+00   8.7960000e+00   8.7330000e+00   8.7370000e+00   8.8470000e+00   9.0190000e+00   9.1540000e+00   9.4030000e+00   9.7250000e+00   9.8090000e+00   1.0048000e+01   1.0189000e+01   1.0133000e+01   1.0672000e+01   1.0996000e+01   1.1362000e+01   1.1780000e+01   1.2092000e+01   1.2467000e+01   1.2964000e+01   1.3369000e+01   1.2912000e+01   1.2603000e+01   1.3325000e+01   1.4042000e+01   1.4580000e+01   1.4598000e+01   1.3246000e+01   1.3382000e+01   1.3105000e+01   1.4623000e+01   1.3772000e+01   1.5372000e+01   1.4305000e+01   1.4636000e+01   1.5082000e+01   1.4626000e+01   1.4907000e+01   1.5115000e+01   1.5899000e+01   1.6984000e+01   1.7081000e+01   1.7027000e+01   1.7579000e+01   1.7449000e+01   1.8076000e+01   1.8826000e+01   1.9388000e+01   1.9798000e+01   1.9015000e+01   1.8699000e+01
-6.8820000e+00  -6.9380000e+00  -6.8710000e+00  -5.5910000e+00  -4.8360000e+00  -4.5490000e+00  -4.6190000e+00  -3.3950000e+00   2.8610000e+00   1.0460000e+00   5.1800000e-01   1.6280000e+00   1.5240000e+00   1.5820000e+00   1.5160000e+00   1.5040000e+00   1.4420000e+00   1.3390000e+00   1.2840000e+00   1.2130000e+00  -1.3270000e+00  -9.7400000e-01  -2.7730000e+00  -3.4710000e+00   4.9000000e-02  -5.4500000e-01  -3.7120000e+00  -1.5000000e-02  -1.2530000e+00  -7.4800000e-01  -1.9000000e-02  -7.1300000e-01  -3.0000000e-03   1.6000000e-01  -6.0000000e-02   2.7900000e-01   1.2670000e+00   1.6970000e+00   1.8650000e+00   2.1390000e+00   1.7990000e+00   1.8030000e+00   1.7710000e+00   1.7060000e+00   1.6440000e+00   1.5870000e+00   1.5300000e+00   1.4570000e+00   1.3910000e+00   1.3480000e+00   1.3080000e+00   1.2640000e+00   1.2260000e+00   1.1540000e+00   1.0950000e+00   1.0550000e+00   1.0290000e+00   1.0100000e+00   9.9700000e-01   9.9100000e-01   9.9100000e-01   9.8900000e-01   9.9000000e-01   9.9000000e-01   1.0000000e+00   1.0010000e+00   1.0230000e+00   2.5000000e-02   1.0520000e+00   1.3700000e-01   1.3000000e-01   1.8300000e-01   1.9600000e-01   1.3300000e-01   1.3200000e-01   1.6200000e-01   8.2000000e-02   1.4200000e-01   1.6700000e-01   1.7400000e-01   1.7400000e-01   1.9200000e-01   1.7300000e-01   6.3000000e-02  -2.0100000e-01  -4.0900000e-01  -7.0100000e-01  -1.0000000e+00  -1.1120000e+00  -1.5680000e+00  -1.1990000e+00  -9.7900000e-01  -1.6400000e+00  -3.4990000e+00  -3.3660000e+00  -3.1930000e+00  -2.3710000e+00  -6.5700000e-01   1.0130000e+00   2.9680000e+00   3.7210000e+00   4.7760000e+00   5.8240000e+00   7.1520000e+00   7.6510000e+00   7.8900000e+00   8.3120000e+00   8.7010000e+00   8.7360000e+00   9.2560000e+00   9.6090000e+00   9.8430000e+00   9.8520000e+00   9.9220000e+00   1.0072000e+01   1.0130000e+01   1.0157000e+01   1.0152000e+01   1.0234000e+01   1.0146000e+01   1.0604000e+01   1.1025000e+01   1.1333000e+01   1.1474000e+01   1.1718000e+01   1.2123000e+01   1.2438000e+01   1.2699000e+01   1.2623000e+01   1.3334000e+01   1.3981000e+01   1.3381000e+01   1.2219000e+01   1.2520000e+01   1.3706000e+01   1.4106000e+01   1.3307000e+01   1.3528000e+01   1.3992000e+01   1.4319000e+01   1.4678000e+01   1.4425000e+01   1.5641000e+01   1.4279000e+01   1.5434000e+01   1.4173000e+01   1.5152000e+01   1.5563000e+01   1.5280000e+01   1.6709000e+01   1.7308000e+01   1.7133000e+01   1.8326000e+01   1.8363000e+01   1.7525000e+01   1.7813000e+01   1.8518000e+01   1.9259000e+01   1.9804000e+01   2.0271000e+01
-5.7660000e+00  -6.6050000e+00  -5.6630000e+00  -5.9620000e+00  -5.5310000e+00  -5.1530000e+00  -4.3110000e+00  -4.2300000e+00  -2.4420000e+00   5.4100000e-01   1.5320000e+00   1.1300000e+00   1.4220000e+00   1.9360000e+00   1.8150000e+00   1.7740000e+00   1.6490000e+00   1.6010000e+00   1.6510000e+00   1.6160000e+00   1.1430000e+00   1.3000000e+00   1.3060000e+00   1.2090000e+00   7.2400000e-01   6.7000000e-02  -3.3800000e-01   7.6300000e-01   1.2860000e+00   1.3060000e+00   1.3410000e+00   1.4040000e+00   1.4740000e+00   1.5970000e+00   1.9220000e+00   2.1990000e+00   2.3990000e+00   2.3510000e+00   2.4330000e+00   2.0330000e+00   1.8340000e+00   1.7970000e+00   1.7100000e+00   1.6290000e+00   1.5580000e+00   1.5090000e+00   1.4590000e+00   1.4020000e+00   1.3540000e+00   1.3090000e+00   1.2560000e+00   1.2090000e+00   1.1650000e+00   1.0770000e+00   1.0070000e+00   9.8500000e-01   9.7200000e-01   9.6100000e-01   9.5800000e-01   9.5900000e-01   9.7200000e-01   9.7700000e-01   9.8000000e-01   9.9000000e-01   9.9000000e-01   9.9900000e-01   1.0000000e+00   1.0000000e+00   9.9700000e-01   9.9400000e-01   9.9900000e-01   1.0000000e+00   1.0000000e+00   1.0050000e+00   9.5600000e-01   5.0200000e-01   1.4000000e-01   1.1000000e-01   1.6700000e-01   1.8500000e-01   1.5900000e-01   9.0000000e-02  -3.9000000e-02  -1.4800000e-01  -1.0100000e-01  -2.9200000e-01  -4.3300000e-01  -1.0470000e+00  -1.2130000e+00  -1.5720000e+00  -1.4830000e+00  -1.3410000e+00  -1.8690000e+00  -3.8950000e+00  -3.1750000e+00  -3.6020000e+00  -2.6450000e+00  -1.2460000e+00   5.9200000e-01   3.7090000e+00   4.7150000e+00   6.4540000e+00   7.3390000e+00   7.9770000e+00   8.4140000e+00   8.7590000e+00   8.9620000e+00   9.1390000e+00   9.5010000e+00   9.5820000e+00   9.7960000e+00   9.8220000e+00   9.7580000e+00   9.8270000e+00   9.9630000e+00   1.0242000e+01   1.0477000e+01   1.0544000e+01   1.0667000e+01   1.0811000e+01   1.1014000e+01   1.1250000e+01   1.1432000e+01   1.1431000e+01   1.2133000e+01   1.2438000e+01   1.3015000e+01   1.3409000e+01   1.3159000e+01   1.2382000e+01   1.2652000e+01   1.3031000e+01   1.3219000e+01   1.2263000e+01   1.2454000e+01   1.3887000e+01   1.3800000e+01   1.2943000e+01   1.3518000e+01   1.4052000e+01   1.4765000e+01   1.4108000e+01   1.4954000e+01   1.4489000e+01   1.4318000e+01   1.5245000e+01   1.5319000e+01   1.6374000e+01   1.5201000e+01   1.5958000e+01   1.7364000e+01   1.8005000e+01   1.8469000e+01   1.9654000e+01   1.7977000e+01   1.7940000e+01   1.8581000e+01   1.8839000e+01   1.9501000e+01   2.0075000e+01
-5.0940000e+00  -5.8380000e+00  -5.2560000e+00  -6.1410000e+00  -4.8650000e+00  -4.7830000e+00  -4.1220000e+00  -2.7750000e+00  -2.8720000e+00  -3.1090000e+00   1.6300000e-01   4.3000000e-02   7.4700000e-01   1.5890000e+00   1.9470000e+00   1.9860000e+00   1.8070000e+00   1.8140000e+00   1.9700000e+00   2.1810000e+00   1.7310000e+00   1.6700000e+00   1.7330000e+00   1.6920000e+00   1.4630000e+00   1.2420000e+00   1.0910000e+00   1.5460000e+00   1.8370000e+00   1.8340000e+00   1.8200000e+00   1.8670000e+00   1.9560000e+00   2.1120000e+00   2.3880000e+00   2.6960000e+00   2.7670000e+00   2.7540000e+00   2.5650000e+00   2.3420000e+00   2.1380000e+00   1.8720000e+00   1.6960000e+00   1.6080000e+00   1.5290000e+00   1.4960000e+00   1.5030000e+00   1.5060000e+00   1.4400000e+00   1.3890000e+00   1.3240000e+00   1.2160000e+00   1.1130000e+00   9.8600000e-01   9.2000000e-01   9.0400000e-01   9.1000000e-01   9.2700000e-01   9.4300000e-01   9.5800000e-01   9.7400000e-01   9.8000000e-01   9.9000000e-01   9.9100000e-01   1.0000000e+00   1.0000000e+00   1.0000000e+00   1.0380000e+00   1.8300000e-01   2.7000000e-01   1.7900000e-01   1.6600000e-01   4.3000000e-01   9.4800000e-01   8.7000000e-01   3.1600000e-01   2.0200000e-01   1.0220000e+00   1.6400000e-01   1.9200000e-01   1.9400000e-01   1.9200000e-01   2.0800000e-01   2.1700000e-01   1.4900000e-01   1.0600000e-01   6.3000000e-02  -6.8700000e-01  -9.8200000e-01  -1.5340000e+00  -1.9740000e+00  -1.8690000e+00  -2.1920000e+00  -2.7990000e+00  -2.5790000e+00  -3.6420000e+00  -2.4850000e+00  -2.9700000e-01   1.1290000e+00   3.8940000e+00   6.4080000e+00   7.4100000e+00   7.6610000e+00   7.8630000e+00   8.0950000e+00   8.2610000e+00   8.2930000e+00   8.4220000e+00   8.7010000e+00   8.8290000e+00   8.9890000e+00   9.2010000e+00   9.4150000e+00   9.6360000e+00   9.8850000e+00   1.0149000e+01   1.0385000e+01   1.0497000e+01   1.0490000e+01   1.0744000e+01   1.0971000e+01   1.1148000e+01   1.1429000e+01   1.1691000e+01   1.1928000e+01   1.2190000e+01   1.2881000e+01   1.3804000e+01   1.3950000e+01   1.3322000e+01   1.2192000e+01   1.2465000e+01   1.3025000e+01   1.2990000e+01   1.2364000e+01   1.3227000e+01   1.4344000e+01   1.3769000e+01   1.3050000e+01   1.3830000e+01   1.4250000e+01   1.4721000e+01   1.4078000e+01   1.5537000e+01   1.4434000e+01   1.5694000e+01   1.5416000e+01   1.5169000e+01   1.6696000e+01   1.6272000e+01   1.7002000e+01   1.7511000e+01   1.7856000e+01   1.9160000e+01   1.9127000e+01   1.8821000e+01   1.8752000e+01   1.8843000e+01   1.9164000e+01   1.9389000e+01
-5.2790000e+00  -4.8820000e+00  -6.0200000e+00  -6.4580000e+00  -4.4180000e+00  -4.8000000e+00  -3.7130000e+00  -3.5840000e+00  -1.3910000e+00  -1.5510000e+00  -9.3200000e-01  -3.5000000e-01  -5.6000000e-02   1.1520000e+00   1.8480000e+00   2.0210000e+00   1.9360000e+00   1.9990000e+00   2.1240000e+00   2.3830000e+00   2.1770000e+00   2.0160000e+00   2.0750000e+00   2.1640000e+00   2.0260000e+00   1.9840000e+00   1.9720000e+00   2.1930000e+00   2.3860000e+00   2.3670000e+00   2.2050000e+00   2.2820000e+00   2.3430000e+00   2.3970000e+00   2.6030000e+00   2.7600000e+00   2.6050000e+00   2.4350000e+00   2.1480000e+00   2.1000000e+00   2.0000000e+00   1.8580000e+00   1.6950000e+00   1.5970000e+00   1.5360000e+00   1.4950000e+00   1.4770000e+00   1.7190000e+00   1.6170000e+00   1.8700000e+00   2.2540000e+00   1.4200000e+00   9.8000000e-01   8.8800000e-01   8.6000000e-01   8.4200000e-01   8.7700000e-01   9.2400000e-01   9.7000000e-01   1.0000000e+00   1.0060000e+00   1.0000000e+00   8.5000000e-01   5.2200000e-01   9.2900000e-01   1.0010000e+00   1.1690000e+00   2.2300000e-01   4.9800000e-01   2.6400000e-01   1.0220000e+00   1.4900000e-01   1.8300000e-01   1.8900000e-01   1.5700000e-01   1.9000000e-01   1.7900000e-01   1.3600000e-01   1.8900000e-01   1.8000000e-01   1.8900000e-01   1.6800000e-01   1.6100000e-01   1.8200000e-01   1.9600000e-01   1.1000000e-01   2.6000000e-02  -5.7900000e-01  -6.6900000e-01  -6.1400000e-01  -1.5690000e+00  -1.8150000e+00  -2.3070000e+00  -3.3560000e+00  -3.1740000e+00  -4.1210000e+00  -1.2460000e+00   1.6600000e-01   7.8500000e-01   2.4390000e+00   4.3820000e+00   5.8090000e+00   6.6440000e+00   7.0710000e+00   7.2690000e+00   7.3440000e+00   7.7520000e+00   7.6350000e+00   7.4660000e+00   7.4870000e+00   7.5550000e+00   7.5850000e+00   7.7030000e+00   7.6400000e+00   7.0980000e+00   6.9140000e+00   7.3230000e+00   7.8360000e+00   8.7600000e+00   1.0302000e+01   1.0727000e+01   1.1070000e+01   1.1255000e+01   1.2024000e+01   1.2406000e+01   1.2706000e+01   1.2932000e+01   1.3360000e+01   1.4259000e+01   1.3892000e+01   1.2934000e+01   1.2539000e+01   1.2954000e+01   1.3061000e+01   1.2324000e+01   1.2259000e+01   1.3835000e+01   1.4548000e+01   1.3495000e+01   1.3446000e+01   1.4171000e+01   1.4168000e+01   1.4043000e+01   1.5047000e+01   1.4660000e+01   1.4719000e+01   1.5528000e+01   1.5929000e+01   1.6441000e+01   1.5664000e+01   1.7303000e+01   1.7851000e+01   1.8029000e+01   1.9175000e+01   1.9175000e+01   1.8879000e+01   1.9095000e+01   1.9400000e+01   1.9098000e+01   1.9379000e+01
-5.3390000e+00  -4.6500000e+00  -6.6340000e+00  -4.8200000e+00  -5.1720000e+00  -5.2920000e+00  -3.0160000e+00  -2.5240000e+00  -2.7420000e+00  -1.2030000e+00  -2.7000000e-01  -3.2000000e-02   1.0210000e+00   8.7500000e-01   1.7860000e+00   2.0090000e+00   2.0340000e+00   2.1710000e+00   2.0000000e+00   2.0000000e+00   2.0000000e+00   2.0000000e+00   2.0000000e+00   2.0000000e+00   2.0000000e+00   2.0000000e+00   2.0000000e+00   2.0000000e+00   2.0000000e+00   2.0000000e+00   2.0000000e+00   2.4670000e+00   2.4910000e+00   2.4710000e+00   2.5420000e+00   2.5850000e+00   2.7180000e+00   2.4000000e+00   2.0850000e+00   2.0640000e+00   1.9750000e+00   1.8630000e+00   1.7160000e+00   1.5990000e+00   1.5590000e+00   1.5550000e+00   1.8540000e+00   2.1450000e+00   1.9420000e+00   2.6090000e+00   2.1230000e+00   2.2570000e+00   2.0050000e+00   1.1680000e+00   8.3600000e-01   8.1200000e-01   9.0200000e-01   9.9700000e-01   1.0520000e+00   1.0650000e+00   1.0280000e+00   1.7800000e-01   2.9500000e-01   3.2000000e-01   7.7100000e-01   1.0180000e+00   1.0030000e+00   8.3700000e-01   1.0130000e+00   3.5200000e-01   6.8800000e-01   1.8400000e-01  -1.1800000e-01   1.5900000e-01   1.5200000e-01   1.6600000e-01   1.3200000e-01   4.4000000e-02   9.4000000e-02   1.1200000e-01   1.8200000e-01   1.9900000e-01   1.9700000e-01   1.8900000e-01   1.8600000e-01   1.3900000e-01  -3.0000000e-03  -5.0100000e-01  -4.6100000e-01  -5.3400000e-01  -1.2290000e+00  -1.4300000e+00  -1.8160000e+00  -3.2720000e+00  -4.3340000e+00  -1.4940000e+00  -1.6400000e-01   2.8000000e-01   8.5400000e-01   1.5790000e+00   3.7030000e+00   5.3840000e+00   6.2720000e+00   6.6850000e+00   6.8650000e+00   6.7220000e+00   6.2430000e+00   6.3960000e+00   6.0780000e+00   5.8050000e+00   5.8390000e+00   5.6310000e+00   5.6140000e+00   5.5500000e+00   5.2810000e+00   5.3150000e+00   5.4080000e+00   5.5590000e+00   6.0880000e+00   6.1900000e+00   5.7150000e+00   5.2520000e+00   5.6490000e+00   1.1733000e+01   1.3037000e+01   1.3176000e+01   1.3329000e+01   1.2690000e+01   1.3528000e+01   1.4079000e+01   1.3310000e+01   1.2934000e+01   1.3281000e+01   1.3610000e+01   1.3324000e+01   1.2558000e+01   1.3235000e+01   1.4841000e+01   1.4530000e+01   1.3511000e+01   1.4016000e+01   1.4524000e+01   1.4828000e+01   1.5377000e+01   1.4974000e+01   1.4706000e+01   1.5715000e+01   1.5208000e+01   1.6616000e+01   1.6474000e+01   1.6025000e+01   1.7424000e+01   1.8210000e+01   1.8605000e+01   1.9161000e+01   1.9220000e+01   1.9530000e+01   1.9407000e+01   1.9455000e+01   1.8919000e+01
-3.9090000e+00  -3.2950000e+00  -5.8360000e+00  -2.1300000e+00  -5.9500000e+00  -3.2450000e+00  -2.2930000e+00  -1.4030000e+00  -1.2520000e+00  -1.1360000e+00  -1.8200000e-01  -2.4400000e-01  -4.9000000e-02   1.0590000e+00   1.7880000e+00   2.0200000e+00   2.0420000e+00   1.8790000e+00   2.0000000e+00   2.0000000e+00   2.0000000e+00   2.0000000e+00   2.0000000e+00   2.0000000e+00   2.0000000e+00   2.0000000e+00   2.0000000e+00   2.0000000e+00   2.0000000e+00   2.0000000e+00   2.0000000e+00   3.0000000e+00   3.0000000e+00   3.0000000e+00   3.0000000e+00   3.0000000e+00   3.0000000e+00   2.4600000e+00   2.2590000e+00   2.1260000e+00   2.0020000e+00   1.9110000e+00   1.8330000e+00   1.7980000e+00   1.7830000e+00   1.7960000e+00   1.8850000e+00   2.0370000e+00   2.2540000e+00   2.5330000e+00   3.0400000e+00   4.5560000e+00   3.9080000e+00   1.4050000e+00   5.8400000e-01   7.3800000e-01   1.0210000e+00   1.2140000e+00   1.2580000e+00   1.1950000e+00   1.0420000e+00   7.4400000e-01  -7.7500000e-01  -2.9800000e-01  -4.7100000e-01  -2.9800000e-01  -3.6000000e-02  -1.6700000e-01  -6.3000000e-02  -1.7000000e-02   1.1800000e-01  -6.6200000e-01  -5.0200000e-01  -5.4200000e-01  -6.2200000e-01  -6.8700000e-01  -5.1300000e-01  -5.7900000e-01  -3.8700000e-01  -1.9700000e-01   4.4000000e-02   1.3500000e-01   1.6200000e-01   1.4100000e-01  -4.2000000e-02  -3.9000000e-01  -3.5900000e-01  -5.3300000e-01  -3.8000000e-01  -1.1850000e+00  -1.4920000e+00  -1.7490000e+00  -1.9580000e+00  -2.4160000e+00  -2.4160000e+00  -4.8400000e-01   2.7700000e-01   8.8800000e-01   1.6140000e+00   2.7410000e+00   4.2690000e+00   5.9150000e+00   7.1460000e+00   7.3710000e+00   7.3250000e+00   7.2360000e+00   6.9680000e+00   6.6290000e+00   6.3200000e+00   5.9860000e+00   5.5110000e+00   5.3530000e+00   5.2280000e+00   5.0370000e+00   5.0550000e+00   4.9160000e+00   4.8490000e+00   5.0950000e+00   4.7480000e+00   5.5220000e+00   6.4050000e+00   6.7640000e+00   6.2740000e+00   1.0912000e+01   1.3223000e+01   1.3408000e+01   1.3406000e+01   1.3263000e+01   1.2625000e+01   1.3586000e+01   1.3362000e+01   1.3018000e+01   1.3498000e+01   1.3402000e+01   1.3523000e+01   1.2998000e+01   1.2809000e+01   1.4336000e+01   1.4754000e+01   1.4338000e+01   1.3845000e+01   1.4456000e+01   1.5381000e+01   1.4660000e+01   1.5760000e+01   1.4763000e+01   1.5599000e+01   1.5284000e+01   1.6108000e+01   1.7106000e+01   1.6340000e+01   1.7744000e+01   1.8424000e+01   1.8687000e+01   1.9577000e+01   1.9646000e+01   1.9734000e+01   2.0168000e+01   1.9414000e+01   1.8991000e+01
-3.6400000e-01  -2.9400000e+00  -1.9363000e+01  -2.8890000e+00  -2.3020000e+00  -1.8230000e+00  -1.7390000e+00  -9.9600000e-01  -9.4000000e-01  -5.3900000e-01   6.7000000e-02   1.8500000e-01   7.0000000e-03   1.2630000e+00   1.8200000e+00   2.0540000e+00   1.8840000e+00   1.6570000e+00   2.0000000e+00   2.0000000e+00   2.0000000e+00   2.0000000e+00   2.0000000e+00   2.0000000e+00   2.0000000e+00   2.0000000e+00   2.0000000e+00   2.0000000e+00   2.0000000e+00   2.0000000e+00   2.0000000e+00   3.0000000e+00   3.0000000e+00   3.0000000e+00   3.0000000e+00   3.0000000e+00   3.0000000e+00   2.6960000e+00   2.3930000e+00   2.1850000e+00   2.0230000e+00   1.9550000e+00   1.9430000e+00   1.9400000e+00   1.9290000e+00   1.9180000e+00   1.9240000e+00   1.9510000e+00   1.9930000e+00   2.0630000e+00   2.1130000e+00   1.9250000e+00   1.8760000e+00   3.8550000e+00   1.8760000e+00   6.4200000e-01   1.1970000e+00   1.5130000e+00   1.5760000e+00   1.3170000e+00   1.1760000e+00   7.6300000e-01   2.2410000e+00   2.6610000e+00   3.4200000e+00   3.2600000e+00   1.5160000e+00   1.7200000e+00   1.9600000e+00   2.5830000e+00   2.5470000e+00   6.4100000e-01  -2.1700000e-01  -5.3200000e-01  -6.5000000e-01  -6.6600000e-01  -6.2700000e-01  -6.3600000e-01  -6.6300000e-01  -6.3800000e-01  -8.1200000e-01  -7.7700000e-01   4.4000000e-02   8.6000000e-02   2.7000000e-02  -2.0900000e-01  -1.5720000e+00  -2.7190000e+00  -9.7200000e-01  -1.5230000e+00  -1.8610000e+00  -2.1260000e+00  -2.6290000e+00  -4.3470000e+00  -2.3280000e+00  -7.2500000e-01   1.6200000e-01   4.1900000e-01   1.9430000e+00   3.1160000e+00   4.5490000e+00   6.2100000e+00   7.3860000e+00   7.7200000e+00   7.5140000e+00   6.8770000e+00   6.1890000e+00   5.4400000e+00   5.1180000e+00   4.7500000e+00   4.7650000e+00   5.0030000e+00   5.3430000e+00   5.6340000e+00   5.9420000e+00   6.0990000e+00   6.0740000e+00   6.0150000e+00   5.8800000e+00   5.1360000e+00   7.7560000e+00   7.8600000e+00   7.0900000e+00   1.1263000e+01   1.3472000e+01   1.3824000e+01   1.3562000e+01   1.3427000e+01   1.3178000e+01   1.3125000e+01   1.3323000e+01   1.2592000e+01   1.2796000e+01   1.3783000e+01   1.3349000e+01   1.3539000e+01   1.2768000e+01   1.3775000e+01   1.4720000e+01   1.4280000e+01   1.3986000e+01   1.5405000e+01   1.5071000e+01   1.4896000e+01   1.5554000e+01   1.4927000e+01   1.5266000e+01   1.4997000e+01   1.6228000e+01   1.6239000e+01   1.6399000e+01   1.7567000e+01   1.8340000e+01   1.8461000e+01   1.9052000e+01   1.9642000e+01   1.9322000e+01   2.0220000e+01   1.9276000e+01   1.9059000e+01
-2.1590000e+00   1.4200000e-01  -7.4900000e-01  -1.1960000e+00  -1.6450000e+00  -3.5300000e+00  -1.2260000e+00  -6.1300000e-01  -3.1400000e-01  -1.0300000e-01   1.7200000e-01  -1.1000000e-01  -2.0900000e-01   1.5130000e+00   1.8790000e+00   1.8400000e+00   1.5690000e+00   1.3720000e+00   1.1710000e+00   1.4280000e+00   1.6320000e+00   1.6830000e+00   1.7990000e+00   1.9130000e+00   2.0000000e+00   2.0570000e+00   2.0670000e+00   2.0660000e+00   2.0650000e+00   2.1470000e+00   2.1720000e+00   3.0000000e+00   3.0000000e+00   3.0000000e+00   3.0000000e+00   3.0000000e+00   3.0000000e+00   3.0000000e+00   3.0000000e+00   3.0000000e+00   3.0000000e+00   3.0000000e+00   2.0550000e+00   2.0730000e+00   2.0360000e+00   1.9570000e+00   1.8670000e+00   1.7440000e+00   1.5910000e+00   1.5070000e+00   1.4580000e+00   1.4550000e+00   1.4680000e+00   1.7550000e+00   4.9870000e+00   3.9200000e-01   1.1490000e+00   1.4130000e+00   1.6230000e+00   1.1880000e+00   1.4650000e+00   1.8310000e+00   2.1900000e+00   2.3070000e+00   2.5530000e+00   2.9900000e+00   2.7690000e+00   3.0340000e+00   3.0740000e+00   2.7330000e+00   2.7980000e+00   2.7360000e+00   1.4640000e+00  -6.3400000e-01  -8.7800000e-01  -8.7200000e-01  -8.1000000e-01  -8.1100000e-01  -7.2500000e-01  -6.0100000e-01  -4.3100000e-01  -3.9100000e-01  -4.2900000e-01  -6.4800000e-01  -3.4400000e-01  -9.2100000e-01  -6.5370000e+00  -7.0370000e+00  -1.5380000e+00  -1.5600000e+00  -1.8120000e+00  -2.0460000e+00  -2.2950000e+00  -2.5800000e+00  -4.4790000e+00  -2.1700000e+00  -1.0130000e+00   1.7500000e-01   1.1700000e-01   1.6820000e+00   2.7590000e+00   4.2110000e+00   5.9060000e+00   7.1420000e+00   6.9550000e+00   6.0960000e+00   5.2750000e+00   4.9450000e+00   5.1580000e+00   5.3500000e+00   6.1850000e+00   7.1180000e+00   7.5350000e+00   7.5460000e+00   7.7700000e+00   7.9590000e+00   7.4880000e+00   6.9320000e+00   6.4300000e+00   6.3360000e+00   7.8580000e+00   7.8330000e+00   8.0160000e+00   1.2566000e+01   1.3502000e+01   1.3992000e+01   1.4005000e+01   1.3287000e+01   1.3040000e+01   1.3481000e+01   1.3335000e+01   1.2403000e+01   1.2058000e+01   1.3244000e+01   1.3448000e+01   1.3538000e+01   1.2980000e+01   1.3334000e+01   1.4324000e+01   1.4396000e+01   1.3995000e+01   1.4881000e+01   1.5578000e+01   1.5445000e+01   1.5631000e+01   1.5842000e+01   1.5278000e+01   1.5657000e+01   1.6626000e+01   1.6569000e+01   1.6441000e+01   1.7154000e+01   1.8434000e+01   1.8420000e+01   1.8996000e+01   1.9053000e+01   1.9905000e+01   2.0442000e+01   2.0127000e+01   1.9417000e+01
1.2800000e-01  -2.1250000e+00  -2.1990000e+00  -8.0600000e-01  -5.7830000e+00  -1.4370000e+00   4.1500000e-01   1.7900000e-01   8.2000000e-01   1.1140000e+00   1.2100000e+00  -6.8000000e-02   1.2050000e+00   1.9070000e+00   1.6990000e+00   1.2840000e+00   1.0630000e+00   1.0370000e+00  -1.6500000e-01   4.8000000e-02   1.2940000e+00   1.4670000e+00   1.5830000e+00   1.6730000e+00   1.7550000e+00   1.8030000e+00   1.8330000e+00   1.8520000e+00   1.8680000e+00   1.9430000e+00   1.9920000e+00   3.0000000e+00   3.0000000e+00   3.0000000e+00   3.0000000e+00   3.0000000e+00   3.0000000e+00   3.0000000e+00   3.0000000e+00   3.0000000e+00   3.0000000e+00   3.0000000e+00   2.2190000e+00   2.2750000e+00   2.1880000e+00   2.0470000e+00   1.8860000e+00   1.6820000e+00   1.3640000e+00   1.0120000e+00   6.4800000e-01   1.1770000e+00   1.6260000e+00   1.5000000e+00   2.0810000e+00   3.4290000e+00   7.8900000e-01   1.5700000e+00   1.7000000e+00   1.4550000e+00   1.3140000e+00   1.4330000e+00   5.6000000e+00   3.8350000e+00   3.6520000e+00   3.2180000e+00   3.2660000e+00   3.3530000e+00   3.7070000e+00   3.6630000e+00   5.6430000e+00   4.6920000e+00   8.6200000e+00   1.0191000e+01   1.1244000e+01   7.3550000e+00   2.7100000e+00   1.6570000e+00   2.1190000e+00   2.5820000e+00   2.5160000e+00   8.8200000e-01  -4.1000000e-02   2.8000000e-02  -2.4000000e-01  -4.5400000e-01  -6.8700000e-01  -9.8400000e-01  -1.2170000e+00  -8.3400000e-01  -8.0800000e-01  -8.6300000e-01  -1.0910000e+00  -1.3080000e+00  -1.3930000e+00  -1.3330000e+00  -1.1550000e+00  -7.9900000e-01  -1.9500000e-01  -2.5400000e-01  -2.8800000e-01   4.5200000e-01   6.8990000e+00   8.6130000e+00   1.0305000e+01   5.9060000e+00   7.9960000e+00   7.5760000e+00   1.0912000e+01   1.0016000e+01   1.0919000e+01   1.1005000e+01   1.0143000e+01   9.7750000e+00   9.3100000e+00   9.1580000e+00   8.2320000e+00   7.6500000e+00   7.4640000e+00   8.1870000e+00   8.3700000e+00   7.8420000e+00   9.6190000e+00   1.2664000e+01   1.3523000e+01   1.3969000e+01   1.4171000e+01   1.3518000e+01   1.2928000e+01   1.3335000e+01   1.3279000e+01   1.2745000e+01   1.2030000e+01   1.2693000e+01   1.4060000e+01   1.3409000e+01   1.3170000e+01   1.3372000e+01   1.4429000e+01   1.4742000e+01   1.4526000e+01   1.5156000e+01   1.6123000e+01   1.5586000e+01   1.6002000e+01   1.6551000e+01   1.5415000e+01   1.6542000e+01   1.6718000e+01   1.6760000e+01   1.6478000e+01   1.6807000e+01   1.8336000e+01   1.8400000e+01   1.8856000e+01   1.8919000e+01   1.9472000e+01   1.8883000e+01   2.0464000e+01   1.9317000e+01
3.0630000e+00   1.4800000e-01   1.6250000e+00   1.4960000e+00   1.7100000e+00  -3.8020000e+00   9.4000000e-02  -3.2710000e+00   1.1860000e+00   1.5560000e+00   1.9290000e+00   1.7690000e+00   1.3830000e+00   1.2180000e+00   1.1200000e+00  -8.2500000e-01  -1.8720000e+00  -2.3300000e-01  -1.6200000e-01   1.0600000e-01   1.0420000e+00   1.2640000e+00   1.3730000e+00   1.4420000e+00   1.5150000e+00   1.5610000e+00   1.5970000e+00   1.6270000e+00   1.6710000e+00   1.7490000e+00   1.8080000e+00   1.8460000e+00   1.8860000e+00   1.9840000e+00   2.1670000e+00   2.3770000e+00   2.4640000e+00   3.0000000e+00   3.0000000e+00   3.0000000e+00   3.0000000e+00   3.0000000e+00   3.5000000e+00   3.5000000e+00   3.5000000e+00   3.5000000e+00   3.5000000e+00   3.5000000e+00   3.5000000e+00   3.5000000e+00   3.5000000e+00   3.5000000e+00   3.5000000e+00   3.5000000e+00   6.0000000e+00   6.0000000e+00   6.0000000e+00   6.0000000e+00   6.0000000e+00   6.0000000e+00   6.0000000e+00   6.0000000e+00   6.0000000e+00   6.0000000e+00   6.0000000e+00   6.0000000e+00   6.0000000e+00   6.0000000e+00   6.0000000e+00   6.0000000e+00   6.0000000e+00   6.0000000e+00   1.0007000e+01   5.0000000e+00   5.0000000e+00   5.0000000e+00   5.0000000e+00   5.0000000e+00   5.0000000e+00   5.0000000e+00   5.0000000e+00   5.0000000e+00   5.0000000e+00   5.0000000e+00   5.0000000e+00   5.0000000e+00   5.0000000e+00   5.0000000e+00   5.0000000e+00   5.0000000e+00   5.0000000e+00   5.0000000e+00   5.0000000e+00   5.0000000e+00   5.0000000e+00   5.0000000e+00   5.0000000e+00   5.0000000e+00   5.0000000e+00   5.0000000e+00   9.6170000e+00   1.0404000e+01   1.7266000e+01   1.1924000e+01   1.5794000e+01   1.7277000e+01   1.3314000e+01   1.1428000e+01   1.4796000e+01   1.3332000e+01   1.0674000e+01   9.7240000e+00   9.5720000e+00   8.8090000e+00   8.6820000e+00   8.3620000e+00   7.8640000e+00   8.0690000e+00   8.0260000e+00   9.1400000e+00   1.1215000e+01   8.7000000e+00   1.0546000e+01   1.2639000e+01   1.3480000e+01   1.3978000e+01   1.4193000e+01   1.3900000e+01   1.2794000e+01   1.3203000e+01   1.3202000e+01   1.2828000e+01   1.1863000e+01   1.1928000e+01   1.3795000e+01   1.3741000e+01   1.3404000e+01   1.3697000e+01   1.4507000e+01   1.4930000e+01   1.5040000e+01   1.5180000e+01   1.6032000e+01   1.5955000e+01   1.5756000e+01   1.6211000e+01   1.5328000e+01   1.6830000e+01   1.5934000e+01   1.6908000e+01   1.6766000e+01   1.6662000e+01   1.8007000e+01   1.8385000e+01   1.8561000e+01   1.9293000e+01   1.9587000e+01   1.9555000e+01   2.0774000e+01   1.9356000e+01
-4.7730000e+00  -4.4990000e+00  -5.0540000e+00  -5.1770000e+00  -4.8220000e+00  -2.1040000e+00  -3.2200000e-01   2.2340000e+00   1.4540000e+00   1.1830000e+00  -3.8220000e+00   1.0760000e+00  -1.3050000e+00  -2.4600000e+00  -2.6330000e+00  -2.1810000e+00  -8.9800000e-01  -2.9600000e-01  -7.4200000e-01  -2.4190000e+00   1.4000000e-02   1.1270000e+00   1.1800000e+00   1.2210000e+00   1.2990000e+00   1.3410000e+00   1.3690000e+00   1.3890000e+00   1.4610000e+00   1.5510000e+00   1.6250000e+00   1.6720000e+00   1.7270000e+00   1.8200000e+00   1.9720000e+00   2.1220000e+00   2.2240000e+00   3.0000000e+00   3.0000000e+00   3.0000000e+00   3.0000000e+00   3.0000000e+00   3.5000000e+00   3.5000000e+00   3.5000000e+00   3.5000000e+00   3.5000000e+00   3.5000000e+00   3.5000000e+00   3.5000000e+00   3.5000000e+00   3.5000000e+00   3.5000000e+00   3.5000000e+00   6.0000000e+00   6.0000000e+00   6.0000000e+00   6.0000000e+00   6.0000000e+00   6.0000000e+00   6.0000000e+00   6.0000000e+00   6.0000000e+00   6.0000000e+00   6.0000000e+00   6.0000000e+00   6.0000000e+00   6.0000000e+00   6.0000000e+00   6.0000000e+00   6.0000000e+00   6.0000000e+00   6.8560000e+00   1.5000000e+01   1.5000000e+01   1.5000000e+01   1.5000000e+01   1.5000000e+01   1.5000000e+01   1.5000000e+01   1.5000000e+01   1.5000000e+01   1.5000000e+01   1.5000000e+01   1.5000000e+01   1.5000000e+01   1.5000000e+01   1.5000000e+01   1.5000000e+01   1.5000000e+01   1.5000000e+01   1.5000000e+01   1.5000000e+01   1.5000000e+01   1.5000000e+01   1.5000000e+01   1.5000000e+01   1.5000000e+01   1.5000000e+01   1.5000000e+01   1.5478000e+01   1.3709000e+01   1.0270000e+01   8.7340000e+00   1.2514000e+01   1.5324000e+01   1.1631000e+01   1.3232000e+01   1.2251000e+01   9.3520000e+00   1.0319000e+01   1.0449000e+01   1.0008000e+01   9.5000000e+00   8.6330000e+00   8.5660000e+00   8.3240000e+00   8.6870000e+00   7.5590000e+00   6.7820000e+00   7.4630000e+00   7.2290000e+00   1.2225000e+01   1.2874000e+01   1.3412000e+01   1.3987000e+01   1.4288000e+01   1.4332000e+01   1.3040000e+01   1.2933000e+01   1.2848000e+01   1.2785000e+01   1.2229000e+01   1.1838000e+01   1.3216000e+01   1.4004000e+01   1.3524000e+01   1.3613000e+01   1.4581000e+01   1.4837000e+01   1.5125000e+01   1.5196000e+01   1.5886000e+01   1.5988000e+01   1.5336000e+01   1.5627000e+01   1.5793000e+01   1.6896000e+01   1.6213000e+01   1.7087000e+01   1.7020000e+01   1.6769000e+01   1.7645000e+01   1.8036000e+01   1.8358000e+01   1.8988000e+01   1.9242000e+01   1.9861000e+01   2.0698000e+01   1.9385000e+01
-4.7890000e+00  -5.6830000e+00  -5.9890000e+00  -3.4770000e+00  -3.7770000e+00  -3.5410000e+00  -4.2180000e+00  -4.0430000e+00  -5.0990000e+00  -3.3040000e+00  -3.4480000e+00  -3.1220000e+00  -3.2230000e+00  -2.4910000e+00  -1.3500000e+00  -2.0490000e+00   1.2830000e+00  -1.6870000e+00  -3.8240000e+00  -1.9220000e+00   9.9900000e-01   1.0320000e+00   9.9900000e-01   1.0490000e+00   1.1040000e+00   1.1280000e+00   1.1520000e+00   1.1500000e+00   1.2590000e+00   1.3630000e+00   1.4390000e+00   1.4940000e+00   1.5470000e+00   1.6310000e+00   1.7560000e+00   1.8780000e+00   1.9610000e+00   1.8560000e+00   2.0000000e+00   1.6790000e+00   1.6260000e+00   2.1380000e+00   3.5000000e+00   3.5000000e+00   3.5000000e+00   3.5000000e+00   3.5000000e+00   3.5000000e+00   3.5000000e+00   3.5000000e+00   3.5000000e+00   3.5000000e+00   3.5000000e+00   3.5000000e+00   6.0000000e+00   6.0000000e+00   6.0000000e+00   6.0000000e+00   6.0000000e+00   6.0000000e+00   6.0000000e+00   6.0000000e+00   6.0000000e+00   6.0000000e+00   6.0000000e+00   6.0000000e+00   6.0000000e+00   6.0000000e+00   6.0000000e+00   6.0000000e+00   6.0000000e+00   6.0000000e+00   3.1370000e+00   5.0000000e+00   5.0000000e+00   5.0000000e+00   5.0000000e+00   5.0000000e+00   5.0000000e+00   5.0000000e+00   5.0000000e+00   5.0000000e+00   5.0000000e+00   5.0000000e+00   5.0000000e+00   5.0000000e+00   5.0000000e+00   5.0000000e+00   5.0000000e+00   5.0000000e+00   5.0000000e+00   5.0000000e+00   5.0000000e+00   5.0000000e+00   5.0000000e+00   5.0000000e+00   5.0000000e+00   5.0000000e+00   5.0000000e+00   5.0000000e+00   9.4740000e+00   8.9870000e+00   7.2700000e+00   7.0670000e+00   7.8580000e+00   7.6520000e+00   6.9650000e+00   7.1650000e+00   6.6750000e+00   7.0350000e+00   7.3210000e+00   6.9650000e+00   7.2570000e+00   7.3660000e+00   7.3330000e+00   7.0490000e+00   6.9270000e+00   6.7600000e+00   6.7730000e+00   5.9390000e+00   6.3320000e+00   9.8330000e+00   1.2515000e+01   1.2933000e+01   1.3450000e+01   1.3886000e+01   1.4293000e+01   1.4453000e+01   1.3294000e+01   1.2300000e+01   1.2521000e+01   1.3195000e+01   1.2554000e+01   1.2265000e+01   1.2673000e+01   1.4068000e+01   1.3774000e+01   1.3748000e+01   1.4472000e+01   1.4745000e+01   1.4776000e+01   1.5286000e+01   1.5847000e+01   1.6039000e+01   1.5155000e+01   1.5575000e+01   1.6235000e+01   1.6805000e+01   1.6756000e+01   1.7346000e+01   1.7405000e+01   1.7153000e+01   1.7549000e+01   1.8065000e+01   1.8308000e+01   1.8646000e+01   1.9053000e+01   1.9709000e+01   2.0776000e+01   1.9359000e+01
-5.4060000e+00  -4.9520000e+00  -3.8690000e+00  -5.3660000e+00  -4.7930000e+00  -5.4160000e+00  -5.0560000e+00  -4.1120000e+00  -2.9770000e+00  -4.3590000e+00  -3.3030000e+00  -2.5620000e+00  -1.7040000e+00  -2.3580000e+00  -5.0970000e+00  -3.8840000e+00  -1.8990000e+00  -2.2430000e+00  -7.6400000e-01   6.7000000e-02  -8.9000000e-01   3.0000000e-01   1.0180000e+00   9.9000000e-02  -2.8500000e-01  -1.9650000e+00  -2.9960000e+00  -6.6600000e-01   1.0710000e+00   1.1740000e+00   1.2560000e+00   1.2950000e+00   1.3400000e+00   1.4010000e+00   1.5140000e+00   1.6310000e+00   1.7480000e+00   1.9260000e+00   1.9580000e+00   1.5920000e+00   1.1720000e+00   2.2170000e+00   2.4120000e+00   2.6070000e+00   1.9590000e+00   1.9050000e+00   2.4350000e+00   1.6890000e+00   1.5000000e+00   1.5000000e+00   1.5000000e+00   2.3500000e+00   2.1450000e+00   1.5830000e+00   1.3940000e+00  -1.5000000e+00  -1.5000000e+00  -1.5000000e+00  -1.5000000e+00  -1.5000000e+00  -1.5000000e+00  -1.5000000e+00   2.6230000e+00   3.3480000e+00   3.8770000e+00   4.8920000e+00   3.8930000e+00   2.4020000e+00   2.5150000e+00   2.8820000e+00   1.8210000e+00  -8.5900000e-01  -1.0390000e+00  -1.0090000e+00  -9.9400000e-01  -1.0280000e+00  -1.0150000e+00  -1.0050000e+00  -8.6900000e-01  -9.1400000e-01  -9.2800000e-01  -7.9200000e-01  -9.9700000e-01  -1.2480000e+00  -1.3960000e+00  -6.3500000e+00  -1.0415000e+01  -9.2400000e+00  -4.8080000e+00  -3.2610000e+00  -2.6000000e+00  -2.6000000e+00  -2.6000000e+00  -2.6000000e+00  -2.6000000e+00  -2.6000000e+00  -2.6000000e+00  -2.6000000e+00  -2.6000000e+00   5.9210000e+00   6.3200000e+00   6.5840000e+00   7.1210000e+00   7.8110000e+00   7.7650000e+00   7.6340000e+00   7.2590000e+00   6.9440000e+00   6.4460000e+00   6.5050000e+00   5.9860000e+00   5.8850000e+00   6.1240000e+00   6.0290000e+00   6.0230000e+00   5.9230000e+00   6.3650000e+00   6.9010000e+00   1.0179000e+01   1.0058000e+01   1.0879000e+01   1.1814000e+01   1.2377000e+01   1.2827000e+01   1.3361000e+01   1.3799000e+01   1.4139000e+01   1.4283000e+01   1.3735000e+01   1.2643000e+01   1.2752000e+01   1.3443000e+01   1.3065000e+01   1.2422000e+01   1.3038000e+01   1.4155000e+01   1.3959000e+01   1.3486000e+01   1.4260000e+01   1.4163000e+01   1.5019000e+01   1.5110000e+01   1.5851000e+01   1.6441000e+01   1.5682000e+01   1.5992000e+01   1.6365000e+01   1.6352000e+01   1.7609000e+01   1.7373000e+01   1.8076000e+01   1.7639000e+01   1.7620000e+01   1.7601000e+01   1.8453000e+01   1.8684000e+01   1.8846000e+01   1.9102000e+01   2.1088000e+01   1.9487000e+01
-5.8480000e+00  -5.6960000e+00  -4.9490000e+00  -6.3080000e+00  -5.7290000e+00  -4.9900000e+00  -5.2280000e+00  -4.9300000e+00  -4.4290000e+00  -4.6470000e+00  -2.7600000e+00  -3.3000000e+00  -3.8950000e+00  -5.4180000e+00  -2.5120000e+00  -1.7530000e+00  -1.3900000e+00  -3.4880000e+00  -3.0000000e+00  -3.0000000e+00  -3.0000000e+00  -3.0000000e+00  -3.0000000e+00  -3.0000000e+00  -3.0000000e+00  -3.0000000e+00  -3.0000000e+00  -3.0000000e+00  -5.5100000e-01   1.0740000e+00   1.0850000e+00   1.1140000e+00   1.1260000e+00   1.1580000e+00   1.2630000e+00   1.3840000e+00   1.5370000e+00   1.7630000e+00   1.8140000e+00   1.5410000e+00   1.8440000e+00   1.8800000e+00   1.5630000e+00   1.4620000e+00   1.3390000e+00   1.3530000e+00   1.4530000e+00   1.5790000e+00   1.5000000e+00   1.5000000e+00   1.5000000e+00   1.6410000e+00   1.6510000e+00   1.2170000e+00  -1.5000000e+00  -1.5000000e+00  -1.5000000e+00  -1.5000000e+00  -1.5000000e+00  -1.5000000e+00  -1.5000000e+00  -1.5000000e+00  -1.5000000e+00   2.7340000e+00  -7.1300000e-01  -6.1200000e-01  -5.7800000e-01  -6.4000000e-01  -2.4960000e+00  -2.5350000e+00  -1.5990000e+00  -1.4730000e+00  -1.4250000e+00  -1.3000000e+00  -1.2600000e+00  -1.2010000e+00  -1.0700000e+00  -1.0270000e+00  -8.5900000e-01  -6.8100000e-01  -5.9200000e-01  -6.7700000e-01  -1.0180000e+00  -9.2300000e-01  -2.1150000e+00  -7.2850000e+00  -7.7380000e+00  -4.7710000e+00  -2.0190000e+00  -9.9400000e-01   1.0900000e-01   6.6400000e-01   2.0040000e+00   2.4100000e+00   3.0270000e+00   3.7090000e+00   4.2610000e+00   4.6840000e+00   4.8960000e+00   5.0760000e+00   5.8040000e+00   6.3960000e+00   6.7790000e+00   7.1060000e+00   7.2600000e+00   7.0980000e+00   6.9800000e+00   6.9230000e+00   6.2840000e+00   6.2780000e+00   6.2860000e+00   5.9100000e+00   6.3680000e+00   6.4490000e+00   7.9480000e+00   8.6600000e+00   1.0071000e+01   1.0704000e+01   1.0334000e+01   1.0592000e+01   1.1224000e+01   1.1505000e+01   1.2166000e+01   1.2930000e+01   1.3323000e+01   1.3769000e+01   1.3990000e+01   1.4326000e+01   1.4725000e+01   1.2981000e+01   1.2511000e+01   1.3738000e+01   1.3726000e+01   1.2917000e+01   1.2998000e+01   1.4092000e+01   1.4380000e+01   1.3627000e+01   1.3964000e+01   1.4339000e+01   1.4785000e+01   1.4350000e+01   1.5655000e+01   1.6230000e+01   1.6470000e+01   1.6227000e+01   1.6466000e+01   1.6554000e+01   1.7670000e+01   1.7750000e+01   1.8478000e+01   1.8156000e+01   1.7718000e+01   1.7943000e+01   1.8648000e+01   1.9026000e+01   1.8706000e+01   1.9156000e+01   1.9914000e+01   2.0427000e+01
-6.2790000e+00  -6.4460000e+00  -6.1910000e+00  -6.1400000e+00  -6.1630000e+00  -5.7060000e+00  -5.9370000e+00  -4.7330000e+00  -4.6990000e+00  -5.4680000e+00  -4.9840000e+00  -4.1020000e+00  -3.3830000e+00  -3.9370000e+00  -4.5310000e+00  -3.6760000e+00  -3.2660000e+00  -2.1180000e+00  -3.0000000e+00  -3.0000000e+00  -3.0000000e+00  -3.0000000e+00  -3.0000000e+00  -3.0000000e+00  -3.0000000e+00  -3.0000000e+00  -3.0000000e+00  -3.0000000e+00  -1.1430000e+00  -1.3800000e-01  -9.4000000e-02  -3.5200000e-01  -5.3000000e-02  -1.5300000e+00   8.3500000e-01   1.1110000e+00   1.2760000e+00   1.3970000e+00   1.3540000e+00   1.2870000e+00   1.2740000e+00   2.9280000e+00   1.4320000e+00   1.3550000e+00   1.2260000e+00   1.1960000e+00   1.1930000e+00   1.2320000e+00   1.5000000e+00   1.5000000e+00   1.5000000e+00   1.1830000e+00  -1.5000000e+00  -1.5000000e+00  -1.5000000e+00  -1.5000000e+00  -1.5000000e+00  -1.5000000e+00  -1.5000000e+00   3.4000000e-01   7.9600000e-01  -2.4800000e-01  -8.0400000e-01   3.7000000e-01   1.8080000e+00   1.5530000e+00   1.1360000e+00  -1.0420000e+00  -7.0100000e-01  -1.6000000e-01   1.5100000e-01   1.5500000e-01   4.6000000e-01   9.4000000e-02   6.0000000e-02   5.4000000e-02   4.0000000e-02   4.5000000e-02   2.0000000e-02   6.1000000e-02  -2.2500000e-01  -5.4300000e-01  -6.8500000e-01  -1.0120000e+00  -1.7220000e+00  -2.3850000e+00  -3.4160000e+00  -1.4260000e+00  -6.1000000e-01   1.4300000e-01   1.1370000e+00   2.4250000e+00   3.2380000e+00   3.7680000e+00   4.1530000e+00   4.4120000e+00   4.7420000e+00   5.6190000e+00   5.9230000e+00   6.1610000e+00   6.5650000e+00   7.0550000e+00   7.5390000e+00   7.6340000e+00   7.7710000e+00   8.0060000e+00   8.2120000e+00   8.1770000e+00   8.3360000e+00   8.6670000e+00   9.0140000e+00   9.0650000e+00   9.5780000e+00   9.7460000e+00   9.8520000e+00   1.0454000e+01   1.0745000e+01   1.0804000e+01   1.0899000e+01   1.1066000e+01   1.1190000e+01   1.1417000e+01   1.1916000e+01   1.2520000e+01   1.2936000e+01   1.3503000e+01   1.3993000e+01   1.4165000e+01   1.4064000e+01   1.3640000e+01   1.3305000e+01   1.3560000e+01   1.4393000e+01   1.3389000e+01   1.3313000e+01   1.3814000e+01   1.4862000e+01   1.3653000e+01   1.3486000e+01   1.4461000e+01   1.5001000e+01   1.4531000e+01   1.5343000e+01   1.6811000e+01   1.6886000e+01   1.6199000e+01   1.6804000e+01   1.6846000e+01   1.7563000e+01   1.8161000e+01   1.8724000e+01   1.8785000e+01   1.7909000e+01   1.8209000e+01   1.8394000e+01   1.8845000e+01   1.8736000e+01   1.9031000e+01   1.8977000e+01   2.0688000e+01
-7.7980000e+00  -7.3350000e+00  -7.6970000e+00  -7.0340000e+00  -7.2670000e+00  -5.8020000e+00  -5.3690000e+00  -4.8740000e+00  -6.6240000e+00  -5.9730000e+00  -4.9720000e+00  -6.4610000e+00  -4.3830000e+00  -7.2820000e+00  -2.4790000e+00  -2.3530000e+00   4.1500000e-01  -8.5700000e-01  -3.0000000e+00  -3.0000000e+00  -3.0000000e+00  -3.0000000e+00  -3.0000000e+00  -3.0000000e+00  -3.0000000e+00  -3.0000000e+00  -3.0000000e+00  -3.0000000e+00  -3.0000000e+00  -3.0000000e+00  -3.0000000e+00  -3.0000000e+00  -3.0000000e+00  -3.0000000e+00  -3.0000000e+00   1.9400000e-01   1.0980000e+00   1.1190000e+00   7.0700000e-01  -3.0000000e+00  -3.0000000e+00  -3.0000000e+00   2.0550000e+00   1.6270000e+00  -3.0000000e+00  -3.0000000e+00  -3.0000000e+00   1.0500000e+00   1.5000000e+00   1.5000000e+00   1.5000000e+00  -1.5000000e+00  -1.5000000e+00  -1.5000000e+00  -1.5000000e+00  -1.5000000e+00  -1.5000000e+00  -1.5000000e+00   1.1400000e+00   9.3200000e-01   1.0630000e+00  -2.3700000e-01  -1.2200000e-01   1.0140000e+00   1.2020000e+00   1.2920000e+00   1.5400000e+00  -1.3450000e+00  -4.9300000e-01   2.4000000e-02   1.6900000e-01   1.0000000e+00   7.6200000e-01   2.4800000e-01   1.6200000e-01   3.3000000e-02   3.3000000e-02  -5.0000000e-03  -1.2700000e-01  -1.8500000e-01  -3.7600000e-01  -4.1300000e-01  -5.5500000e-01  -5.1200000e-01  -2.7630000e+00  -2.9500000e+00  -1.5380000e+00  -4.5600000e-01   4.6300000e-01   1.4220000e+00   2.3150000e+00   3.3440000e+00   4.1670000e+00   4.5950000e+00   4.9550000e+00   5.3190000e+00   5.7280000e+00   6.1320000e+00   6.4940000e+00   6.7810000e+00   7.0100000e+00   7.1710000e+00   7.2840000e+00   7.5090000e+00   7.8340000e+00   8.1280000e+00   8.4150000e+00   8.6560000e+00   8.8410000e+00   9.0150000e+00   9.1520000e+00   9.1230000e+00   9.5680000e+00   9.8090000e+00   1.0169000e+01   1.0475000e+01   1.0826000e+01   1.1278000e+01   1.1324000e+01   1.1490000e+01   1.1681000e+01   1.1740000e+01   1.2063000e+01   1.2239000e+01   1.2483000e+01   1.3240000e+01   1.3058000e+01   1.3083000e+01   1.3698000e+01   1.3510000e+01   1.2656000e+01   1.2997000e+01   1.4020000e+01   1.3441000e+01   1.3623000e+01   1.4200000e+01   1.4051000e+01   1.4036000e+01   1.3400000e+01   1.4519000e+01   1.4761000e+01   1.4803000e+01   1.4938000e+01   1.6725000e+01   1.7284000e+01   1.7008000e+01   1.7008000e+01   1.7126000e+01   1.7843000e+01   1.8317000e+01   1.8715000e+01   1.9139000e+01   1.8676000e+01   1.8509000e+01   1.8581000e+01   1.8529000e+01   1.9068000e+01   1.9481000e+01   2.0102000e+01   2.0679000e+01
-7.6230000e+00  -7.2180000e+00  -7.5320000e+00  -6.9150000e+00  -6.2510000e+00  -5.5630000e+00  -5.5270000e+00  -4.9110000e+00  -5.0310000e+00  -3.9560000e+00  -5.2420000e+00  -4.9170000e+00  -3.7260000e+00  -2.0300000e+00  -3.8090000e+00  -1.1700000e+00  -1.9400000e-01  -2.1390000e+00  -3.0000000e+00  -3.0000000e+00  -3.0000000e+00  -3.0000000e+00  -3.0000000e+00  -3.0000000e+00  -3.0000000e+00  -3.0000000e+00  -3.0000000e+00  -3.0000000e+00  -3.0000000e+00  -3.0000000e+00  -3.0000000e+00  -3.0000000e+00  -3.0000000e+00  -3.0000000e+00  -3.0000000e+00   1.6300000e-01   1.0360000e+00   1.0200000e+00   9.9200000e-01  -3.0000000e+00  -3.0000000e+00  -3.0000000e+00  -3.0000000e+00   5.0110000e+00   1.4430000e+00   1.1930000e+00   1.1040000e+00   1.0720000e+00   1.5000000e+00   1.5000000e+00   1.5000000e+00   1.0140000e+00   9.9900000e-01  -1.5000000e+00  -1.5000000e+00  -1.5000000e+00   1.0020000e+00   1.0000000e+00   9.9500000e-01   1.0390000e+00   9.5900000e-01   6.6800000e-01   7.7900000e-01   1.0660000e+00   5.8000000e-02   1.1000000e+00  -6.9000000e-02  -1.1180000e+00  -3.2660000e+00   1.1320000e+00   1.0110000e+00   1.0120000e+00   1.0100000e+00   1.0100000e+00   1.0100000e+00   1.0720000e+00   7.2300000e-01  -7.0900000e-01  -2.1300000e-01  -7.4300000e-01  -5.3100000e-01  -3.2500000e-01  -1.4230000e+00  -2.0950000e+00  -2.7730000e+00  -1.7170000e+00  -1.1270000e+00  -1.6800000e-01   3.1500000e-01   1.6780000e+00   2.7240000e+00   3.5060000e+00   4.3010000e+00   4.9370000e+00   5.4840000e+00   6.0370000e+00   6.5100000e+00   6.8130000e+00   7.0060000e+00   7.1680000e+00   7.3260000e+00   7.5360000e+00   7.6890000e+00   7.7090000e+00   7.8470000e+00   8.0650000e+00   8.2760000e+00   8.4250000e+00   8.6280000e+00   8.8000000e+00   8.8120000e+00   9.1190000e+00   9.3150000e+00   9.7940000e+00   1.0283000e+01   1.0496000e+01   1.0686000e+01   1.1146000e+01   1.1427000e+01   1.1796000e+01   1.1906000e+01   1.2205000e+01   1.2333000e+01   1.2455000e+01   1.2697000e+01   1.2556000e+01   1.3258000e+01   1.3427000e+01   1.3423000e+01   1.3876000e+01   1.3409000e+01   1.2853000e+01   1.3076000e+01   1.3416000e+01   1.3053000e+01   1.3021000e+01   1.3235000e+01   1.3574000e+01   1.3473000e+01   1.4472000e+01   1.4308000e+01   1.4703000e+01   1.4433000e+01   1.6287000e+01   1.7120000e+01   1.7506000e+01   1.7801000e+01   1.7558000e+01   1.8038000e+01   1.8407000e+01   1.8691000e+01   1.9294000e+01   1.9238000e+01   1.8890000e+01   1.8721000e+01   1.9548000e+01   1.9890000e+01   2.0285000e+01   2.0489000e+01   2.0458000e+01
-7.2070000e+00  -7.8980000e+00  -7.7580000e+00  -7.4120000e+00  -6.6020000e+00  -5.5590000e+00  -4.5440000e+00  -4.5770000e+00  -5.1520000e+00  -5.3230000e+00  -3.8900000e+00  -3.6400000e+00  -4.0040000e+00  -3.0360000e+00  -1.1020000e+00  -1.7660000e+00  -1.5110000e+00  -3.3330000e+00  -3.0000000e+00  -3.0000000e+00  -3.0000000e+00  -3.0000000e+00  -3.0000000e+00  -3.0000000e+00  -3.0000000e+00  -3.0000000e+00  -3.0000000e+00  -3.0000000e+00  -3.0000000e+00  -3.0000000e+00  -3.0000000e+00  -3.0000000e+00  -3.0000000e+00  -3.0000000e+00  -3.0000000e+00   1.0410000e+00   1.0140000e+00   1.6000000e-02   8.5500000e-01  -3.0000000e+00  -3.0000000e+00  -3.0000000e+00  -3.0000000e+00   9.9900000e-01   1.6710000e+00   1.3420000e+00   1.1900000e+00   1.1120000e+00   1.5000000e+00   1.5000000e+00   1.5000000e+00   1.0190000e+00   1.0100000e+00   1.0100000e+00   1.0000000e+00   1.0110000e+00   8.2300000e-01   1.0330000e+00   1.0000000e+00   9.9400000e-01   9.9700000e-01   1.0430000e+00   9.9500000e-01   1.0000000e+00   9.9900000e-01   1.0090000e+00   1.0110000e+00   1.0640000e+00   9.9700000e-01   5.2100000e-01   1.0000000e+00   9.9500000e-01   1.1780000e+00   1.5600000e-01   9.8000000e-02  -1.1800000e-01  -1.8100000e-01  -1.3100000e-01  -7.1000000e-01  -8.2300000e-01  -8.5600000e-01  -1.4640000e+00  -1.3380000e+00  -2.4150000e+00  -2.8660000e+00  -1.4030000e+00  -1.1950000e+00   6.4000000e-02   1.2000000e-01   6.4600000e-01   2.2240000e+00   3.2900000e+00   4.2000000e+00   4.9580000e+00   5.4790000e+00   5.8590000e+00   6.1120000e+00   6.3300000e+00   6.9260000e+00   7.2230000e+00   7.4580000e+00   7.6840000e+00   7.9590000e+00   8.1510000e+00   8.1590000e+00   8.2030000e+00   8.3230000e+00   8.5440000e+00   8.7860000e+00   8.8710000e+00   9.0520000e+00   9.2830000e+00   9.4650000e+00   9.8040000e+00   1.0091000e+01   1.0385000e+01   1.0694000e+01   1.1073000e+01   1.1286000e+01   1.1514000e+01   1.1638000e+01   1.1991000e+01   1.2342000e+01   1.2568000e+01   1.2913000e+01   1.3049000e+01   1.3321000e+01   1.3626000e+01   1.3758000e+01   1.4121000e+01   1.3166000e+01   1.2627000e+01   1.2860000e+01   1.3185000e+01   1.3564000e+01   1.3148000e+01   1.3015000e+01   1.3435000e+01   1.4061000e+01   1.3711000e+01   1.4585000e+01   1.4514000e+01   1.4426000e+01   1.5851000e+01   1.6718000e+01   1.7393000e+01   1.8155000e+01   1.8218000e+01   1.8600000e+01   1.8473000e+01   1.9059000e+01   1.9614000e+01   1.9819000e+01   2.0121000e+01   1.9733000e+01   1.9676000e+01   1.9576000e+01   1.9608000e+01   2.0223000e+01   2.0411000e+01
-7.7820000e+00  -7.6190000e+00  -7.7930000e+00  -7.0030000e+00  -6.2850000e+00  -5.3760000e+00  -4.7080000e+00  -4.3210000e+00  -5.3790000e+00  -6.1050000e+00  -5.6490000e+00  -3.8810000e+00  -6.3850000e+00  -2.5970000e+00  -2.8330000e+00  -2.7690000e+00  -2.3850000e+00  -3.1680000e+00  -3.0000000e+00  -3.0000000e+00  -3.0000000e+00  -3.0000000e+00  -3.0000000e+00  -3.0000000e+00  -3.0000000e+00  -3.0000000e+00  -3.0000000e+00  -3.0000000e+00  -3.0000000e+00  -3.0000000e+00  -3.0000000e+00  -3.0000000e+00  -3.0000000e+00  -3.0000000e+00  -3.0000000e+00  -3.0000000e+00  -3.0000000e+00  -3.0000000e+00  -3.0000000e+00  -3.0000000e+00  -3.0000000e+00  -3.0000000e+00  -3.0000000e+00   1.4320000e+00  -3.0000000e+00  -3.0000000e+00   9.3700000e-01   1.0120000e+00   1.5000000e+00   1.5000000e+00   1.5000000e+00   1.0190000e+00   1.0110000e+00   1.0100000e+00   1.0110000e+00   1.0080000e+00   1.0000000e+00   1.0000000e+00   1.0010000e+00   1.0000000e+00   9.9900000e-01   1.0380000e+00   9.2200000e-01   2.3800000e-01   6.4500000e-01   3.1000000e-01   1.9300000e-01   1.8700000e-01   1.8700000e-01   2.1700000e-01   8.0000000e-01   1.0000000e+00   9.0400000e-01  -2.9000000e-01  -4.4100000e-01  -5.1400000e-01  -5.7000000e-01  -3.5800000e-01  -6.9100000e-01  -9.3600000e-01  -9.5500000e-01  -1.1150000e+00  -1.5830000e+00  -2.9210000e+00  -2.1590000e+00  -1.4090000e+00  -5.2300000e-01   5.6000000e-02   1.4800000e-01   1.3760000e+00   2.9280000e+00   3.9150000e+00   4.6490000e+00   5.0740000e+00   5.3760000e+00   5.8080000e+00   6.3510000e+00   6.8940000e+00   7.3800000e+00   7.7910000e+00   8.0540000e+00   8.2340000e+00   8.3880000e+00   8.4870000e+00   8.6510000e+00   8.7870000e+00   8.9180000e+00   8.9140000e+00   8.9490000e+00   9.1520000e+00   9.3240000e+00   9.5630000e+00   9.8250000e+00   1.0010000e+01   1.0114000e+01   1.0234000e+01   1.0575000e+01   1.0878000e+01   1.1073000e+01   1.1337000e+01   1.1523000e+01   1.1818000e+01   1.2102000e+01   1.2410000e+01   1.2661000e+01   1.2974000e+01   1.3054000e+01   1.2871000e+01   1.3520000e+01   1.3598000e+01   1.3510000e+01   1.3591000e+01   1.2638000e+01   1.2984000e+01   1.3053000e+01   1.3312000e+01   1.3104000e+01   1.3620000e+01   1.3392000e+01   1.4349000e+01   1.4804000e+01   1.5309000e+01   1.5305000e+01   1.5356000e+01   1.6669000e+01   1.7576000e+01   1.8087000e+01   1.8418000e+01   1.8619000e+01   1.8992000e+01   1.9401000e+01   2.0024000e+01   2.0046000e+01   1.9658000e+01   1.9576000e+01   1.9521000e+01   1.9357000e+01   2.0041000e+01   2.0403000e+01   2.0528000e+01
-1.0083000e+01  -7.5240000e+00  -7.3670000e+00  -6.1410000e+00  -6.0870000e+00  -5.0570000e+00  -4.1850000e+00  -4.6620000e+00  -5.4130000e+00  -6.7380000e+00  -7.0450000e+00  -4.5840000e+00  -6.0960000e+00  -2.6060000e+00  -2.8020000e+00  -1.7960000e+00  -2.8930000e+00  -3.6930000e+00  -3.0000000e+00  -3.0000000e+00  -3.0000000e+00  -3.0000000e+00  -3.0000000e+00  -3.0000000e+00  -3.0000000e+00  -3.0000000e+00  -3.0000000e+00  -3.0000000e+00  -3.0000000e+00  -3.0000000e+00  -3.0000000e+00  -3.0000000e+00  -3.0000000e+00  -3.0000000e+00  -3.0000000e+00  -3.0000000e+00  -3.0000000e+00  -3.0000000e+00  -3.0000000e+00  -3.0000000e+00  -3.0000000e+00  -3.0000000e+00  -3.0000000e+00  -3.0000000e+00  -3.0000000e+00  -3.0000000e+00  -3.0000000e+00  -3.0000000e+00   1.5000000e+00   1.5000000e+00   1.5000000e+00   1.0110000e+00   1.0100000e+00   1.0100000e+00   1.0100000e+00   1.0110000e+00   1.0090000e+00   1.0010000e+00   1.0000000e+00   1.0000000e+00   1.0010000e+00   9.9700000e-01   1.3200000e-01   3.7500000e-01   9.9800000e-01   4.2900000e-01   1.4700000e-01   1.5800000e-01   6.6300000e-01   9.8900000e-01   4.1900000e-01  -4.0000000e-02  -3.2200000e-01  -4.3200000e-01  -4.2100000e-01  -5.1000000e-01  -6.4700000e-01  -7.7700000e-01  -7.0900000e-01  -7.7700000e-01  -7.3800000e-01  -1.4270000e+00  -1.8240000e+00  -3.2160000e+00  -1.5950000e+00  -1.2200000e+00  -2.9900000e-01   1.0500000e-01   1.7000000e-01   1.0000000e+00   1.9040000e+00   2.9690000e+00   4.0430000e+00   4.9870000e+00   5.7230000e+00   6.2800000e+00   6.7030000e+00   7.1470000e+00   7.5750000e+00   7.9170000e+00   8.1630000e+00   8.3370000e+00   8.3960000e+00   8.4600000e+00   8.5990000e+00   8.7510000e+00   8.8460000e+00   9.0750000e+00   9.2470000e+00   9.3280000e+00   9.4890000e+00   9.6150000e+00   9.6970000e+00   9.9020000e+00   1.0113000e+01   1.0378000e+01   1.0619000e+01   1.1106000e+01   1.1186000e+01   1.1250000e+01   1.1473000e+01   1.1738000e+01   1.1890000e+01   1.2139000e+01   1.2487000e+01   1.2633000e+01   1.2848000e+01   1.3406000e+01   1.3422000e+01   1.3781000e+01   1.3830000e+01   1.3058000e+01   1.3012000e+01   1.2561000e+01   1.2908000e+01   1.2670000e+01   1.3173000e+01   1.3797000e+01   1.4073000e+01   1.3961000e+01   1.4868000e+01   1.5426000e+01   1.5678000e+01   1.5535000e+01   1.6681000e+01   1.7351000e+01   1.7675000e+01   1.8212000e+01   1.8376000e+01   1.9004000e+01   1.9109000e+01   1.9803000e+01   1.9703000e+01   1.9652000e+01   1.9367000e+01   1.9281000e+01   1.9127000e+01   2.0020000e+01   2.0327000e+01   2.0808000e+01
